ply
format ascii 1.0
element vertex 823
property float x
property float y
property float z
end_header
-7.311288356781006 0.5265091061592102 14.777815818786621
-7.794013977050781 0.411167174577713 15.835369110107422
-6.901443004608154 0.5140693187713623 14.086861610412598
-7.406961917877197 0.4406183958053589 15.139273643493652
-6.850835800170898 1.4329394102096558 14.020999908447266
-6.850835800170898 1.4329394102096558 14.020999908447266
-6.486301422119141 1.5374646186828613 13.300358772277832
-6.26346492767334 1.1771721839904785 12.908120155334473
-6.80736780166626 1.4502488374710083 14.065174102783203
-6.697329521179199 1.489149570465088 13.911810874938965
-6.483687877655029 1.5052496194839478 13.524704933166504
-6.644796848297119 1.3997079133987427 14.004814147949219
-6.817452907562256 0.5627960562705994 14.382551193237305
-6.842531204223633 0.6015831828117371 14.439949035644531
-6.583942413330078 1.3455495834350586 13.954180717468262
-3.8561153411865234 1.7493066787719727 8.218700408935547
-7.0949625968933105 0.3941623270511627 15.176926612854004
-6.789218425750732 1.6262314319610596 14.552210807800293
-5.558913707733154 1.6093741655349731 11.952302932739258
-3.5394771099090576 1.781561017036438 7.62461519241333
-6.74234676361084 0.8178551197052002 14.561995506286621
-3.3989028930664062 1.8037543296813965 7.349560260772705
-6.4302287101745605 1.4495463371276855 13.92131519317627
-6.580835819244385 1.4285330772399902 14.262287139892578
-4.535147190093994 1.723761796951294 9.85380744934082
-3.7765696048736572 1.747124433517456 8.204638481140137
-3.745029926300049 1.7688535451889038 8.137760162353516
-6.062006950378418 1.5372412204742432 13.219915390014648
-3.3577585220336914 1.7975506782531738 7.329695224761963
-3.4925501346588135 1.7832688093185425 7.643344402313232
-3.6936192512512207 1.7453556060791016 8.083171844482422
-3.24573016166687 1.8241100311279297 7.1288371086120605
-3.053269147872925 1.8421179056167603 6.706035614013672
-3.053269147872925 1.8421179056167603 6.706035614013672
-6.414431095123291 0.6654496788978577 14.099014282226562
-6.414431095123291 0.6654496788978577 14.099014282226562
-3.0523972511291504 1.8330481052398682 6.713644504547119
-3.406841278076172 1.799095869064331 7.497307300567627
-6.406403541564941 1.489932656288147 14.101801872253418
-3.339207649230957 1.7994401454925537 7.388556957244873
-3.1389377117156982 1.834215521812439 6.954631328582764
-2.89178466796875 1.8655081987380981 6.404057025909424
-6.82705545425415 1.5691696405410767 15.126749992370605
-6.021334171295166 1.4501988887786865 13.385342597961426
-6.021334171295166 1.4501988887786865 13.385342597961426
-3.029709577560425 1.8295091390609741 6.738946437835693
-3.470459461212158 1.7917087078094482 7.722886085510254
-3.470459461212158 1.7917087078094482 7.722886085510254
-6.235236644744873 1.4366704225540161 13.883255958557129
-3.426985263824463 1.7880122661590576 7.649871826171875
-3.7586820125579834 1.777243733406067 8.393604278564453
-3.7586820125579834 1.777243733406067 8.393604278564453
-3.1168298721313477 1.824919581413269 6.968371868133545
-3.538125991821289 1.7916992902755737 7.9436235427856445
-3.718059539794922 1.7540388107299805 8.347183227539062
-3.0911037921905518 1.834288239479065 6.9517974853515625
-3.3759379386901855 1.7846641540527344 7.592397212982178
-6.053771018981934 1.376621127128601 13.610078811645508
-3.035792827606201 1.8468841314315796 6.831506252288818
-3.17707896232605 1.8160040378570557 7.1487274169921875
-3.17707896232605 1.8160040378570557 7.1487274169921875
-6.110699653625488 1.3390216827392578 13.79210376739502
-3.163660764694214 1.8046692609786987 7.1453657150268555
-6.109427452087402 1.5106172561645508 13.836668014526367
-7.440011501312256 0.25509217381477356 16.88442039489746
-3.0581250190734863 1.8174314498901367 6.942086696624756
-3.1976816654205322 1.8036623001098633 7.2802886962890625
-2.947371006011963 1.8341145515441895 6.710874080657959
-2.862896203994751 1.8504154682159424 6.522424697875977
-5.90100622177124 1.5426714420318604 13.50300121307373
-5.9672346115112305 1.4975383281707764 13.660006523132324
-5.9672346115112305 1.4975383281707764 13.660006523132324
-3.1026387214660645 1.834916591644287 7.1103010177612305
-5.97644567489624 1.4302538633346558 13.77735710144043
-3.2257416248321533 1.8008606433868408 7.4401397705078125
-3.0782766342163086 1.804177165031433 7.103404521942139
-3.0782766342163086 1.804177165031433 7.103404521942139
-3.1268482208251953 1.817732810974121 7.232736110687256
-6.652382850646973 0.4351320266723633 15.438283920288086
-3.3066561222076416 1.779571771621704 7.685303211212158
-5.911606788635254 1.3202916383743286 13.745659828186035
-6.108550548553467 0.8253185749053955 14.205485343933105
-2.7294821739196777 1.8676502704620361 6.346541404724121
-5.994454383850098 1.5093178749084473 13.96798038482666
-5.994454383850098 1.5093178749084473 13.96798038482666
-2.7951602935791016 1.8507553339004517 6.535796165466309
-5.92597770690918 1.4477832317352295 13.868715286254883
-6.368879318237305 0.6113960146903992 14.91696548461914
-2.92281436920166 1.8198626041412354 6.847038269042969
-6.567485332489014 0.47193771600723267 15.42473030090332
-6.173404693603516 0.7304847836494446 14.5280179977417
-3.233973264694214 1.7949433326721191 7.614345073699951
-5.000349998474121 1.576707124710083 11.800836563110352
-3.0657501220703125 1.7939883470535278 7.243056297302246
-6.860626697540283 0.23259882628917694 16.232385635375977
-5.010423183441162 1.6125108003616333 11.860638618469238
-4.967593193054199 1.598515510559082 11.76553726196289
-2.842674493789673 1.8349004983901978 6.736820697784424
-6.389526844024658 0.47967976331710815 15.142930030822754
-6.522365570068359 0.3891495168209076 15.476161003112793
-3.0054473876953125 1.805534839630127 7.136566638946533
-2.844287872314453 1.8253570795059204 6.758299350738525
-4.0850677490234375 1.7150144577026367 9.729506492614746
-3.3845574855804443 1.7710906267166138 8.067802429199219
-7.072211265563965 0.05463743582367897 16.863231658935547
-2.917131185531616 1.8089399337768555 7.015829086303711
-2.9432499408721924 1.8143830299377441 7.088221073150635
-2.9687232971191406 1.8145356178283691 7.165542125701904
-5.877531051635742 1.4251036643981934 14.186850547790527
-4.8781352043151855 1.5547523498535156 11.790656089782715
-2.8870465755462646 1.8171780109405518 6.997041702270508
-6.207119464874268 0.5332091450691223 15.054747581481934
-3.290125608444214 1.759589672088623 7.982728004455566
-3.4352335929870605 1.7760543823242188 8.371891975402832
-2.8456506729125977 1.8340985774993896 6.948901176452637
-6.772228240966797 0.1557617485523224 16.555253982543945
-2.9015157222747803 1.8172378540039062 7.102255821228027
-3.4246771335601807 1.758750319480896 8.402451515197754
-3.090808868408203 1.7545491456985474 7.594559192657471
-3.1264970302581787 1.8120660781860352 7.6920599937438965
-3.266721725463867 1.7910211086273193 8.049872398376465
-4.802102088928223 1.6118881702423096 11.841218948364258
-2.8367154598236084 1.8201367855072021 6.9987006187438965
-2.702802896499634 1.8402822017669678 6.681751251220703
-2.8880157470703125 1.8059624433517456 7.148105144500732
-2.839996814727783 1.7850559949874878 7.0275774002075195
-6.051277160644531 0.8453095555305481 15.034241676330566
-2.8547523021698 1.8183411359786987 7.100115776062012
-3.02158260345459 1.786739468574524 7.551992416381836
-3.117617130279541 1.759843349456787 7.8117570877075195
-2.754709482192993 1.8214595317840576 6.904272079467773
-2.706707715988159 1.816379189491272 6.830057144165039
-2.8519978523254395 1.804961085319519 7.20749044418335
-2.9688429832458496 1.8028583526611328 7.586185932159424
-2.6937646865844727 1.8186969757080078 6.890252113342285
-2.774062156677246 1.80615234375 7.100089073181152
-5.4318342208862305 1.4621877670288086 13.921079635620117
-5.897366046905518 0.4522224962711334 15.148479461669922
-3.0631673336029053 1.774631142616272 7.907905101776123
-3.0631673336029053 1.774631142616272 7.907905101776123
-5.357169151306152 1.3106637001037598 13.84210205078125
-2.652066946029663 1.8290143013000488 6.864421367645264
-3.084059953689575 1.7698869705200195 7.9851861000061035
-2.463815927505493 1.8728406429290771 6.389505863189697
-5.811739444732666 0.5215321183204651 15.08625602722168
-2.5152246952056885 1.8234150409698486 6.5615057945251465
-3.1758344173431396 1.765703558921814 8.305356979370117
-3.1758344173431396 1.765703558921814 8.305356979370117
-2.6503183841705322 1.805539846420288 6.946599960327148
-2.58058500289917 1.8373364210128784 6.786019325256348
-3.3766889572143555 1.750799536705017 8.89096450805664
-2.725140333175659 1.8028767108917236 7.1801981925964355
-3.3259170055389404 1.748518943786621 8.769706726074219
-2.6986382007598877 1.810565710067749 7.115553379058838
-2.6986382007598877 1.810565710067749 7.115553379058838
-3.2730555534362793 1.7377781867980957 8.660425186157227
-3.2730555534362793 1.7377781867980957 8.660425186157227
-2.626932144165039 1.8251757621765137 6.9601030349731445
-2.626932144165039 1.8251757621765137 6.9601030349731445
-2.671971559524536 1.8154093027114868 7.089579105377197
-2.671971559524536 1.8154093027114868 7.089579105377197
-2.7108535766601562 1.8016595840454102 7.192620754241943
-3.353053331375122 1.7377994060516357 8.942410469055176
-5.603936195373535 0.7282003164291382 14.97983455657959
-2.5275285243988037 1.8414874076843262 6.767724990844727
-2.5715575218200684 1.8146328926086426 6.921390533447266
-2.9975669384002686 1.7794748544692993 8.103242874145508
-3.221970319747925 1.7380192279815674 8.7078275680542
-5.269371509552002 0.7684202194213867 14.2809476852417
-5.381234645843506 0.6567248106002808 14.58812427520752
-2.570143699645996 1.8180121183395386 6.984355926513672
-5.185035228729248 1.4169551134109497 14.093368530273438
-4.243765354156494 1.5779895782470703 11.545060157775879
-6.402589321136475 0.36914491653442383 17.431039810180664
-5.567741870880127 0.6455318331718445 15.178120613098145
-3.3511569499969482 1.729205846786499 9.135197639465332
-3.173495054244995 1.730574131011963 8.66797924041748
-5.075605392456055 1.4174281358718872 13.926133155822754
-3.107426643371582 1.7631486654281616 8.531408309936523
-3.3308699131011963 1.7404358386993408 9.189148902893066
-3.3308699131011963 1.7404358386993408 9.189148902893066
-7.283094882965088 -0.18034842610359192 20.105426788330078
-2.788966178894043 1.7847838401794434 7.702445030212402
-2.3989992141723633 1.8415160179138184 6.635591506958008
-2.5194218158721924 1.8154348134994507 6.973230361938477
-2.867574691772461 1.7798795700073242 7.956031799316406
-3.021087169647217 1.774632215499878 8.395242691040039
-2.552311897277832 1.8120357990264893 7.117136478424072
-2.4853899478912354 1.8184365034103394 6.935266971588135
-5.100228786468506 1.4168353080749512 14.246286392211914
-3.285029888153076 1.7159630060195923 9.17625617980957
-2.468526601791382 1.8259869813919067 6.910292625427246
-5.295594692230225 1.5333001613616943 14.833547592163086
-2.2793078422546387 1.8811107873916626 6.389899730682373
-2.3857855796813965 1.8366122245788574 6.69545841217041
-2.6812894344329834 1.7971690893173218 7.541208267211914
-2.9135401248931885 1.7644230127334595 8.216803550720215
-4.358913421630859 1.3446602821350098 12.316736221313477
-2.4862468242645264 1.817866325378418 7.034700393676758
-2.4862468242645264 1.817866325378418 7.034700393676758
-2.8287999629974365 1.7872470617294312 8.003705024719238
-2.8287999629974365 1.7872470617294312 8.003705024719238
-2.513324499130249 1.801987648010254 7.112544536590576
-2.9540491104125977 1.7461086511611938 8.37728500366211
-3.208645820617676 1.7268784046173096 9.116671562194824
-6.748349666595459 -0.010227651335299015 19.180688858032227
-2.568673849105835 1.8154222965240479 7.309320449829102
-3.020591974258423 1.7651379108428955 8.606720924377441
-2.438776731491089 1.8236663341522217 6.952174663543701
-2.438776731491089 1.8236663341522217 6.952174663543701
-3.0687434673309326 1.7614635229110718 8.752379417419434
-3.0687434673309326 1.7614635229110718 8.752379417419434
-2.5255343914031982 1.8069813251495361 7.206536293029785
-2.7508442401885986 1.7886683940887451 7.862484455108643
-2.272401809692383 1.845811367034912 6.535165309906006
-2.272401809692383 1.845811367034912 6.535165309906006
-2.4350426197052 1.8157925605773926 7.02703857421875
-2.4350426197052 1.8157925605773926 7.02703857421875
-2.411561965942383 1.816558837890625 6.974224090576172
-2.411561965942383 1.816558837890625 6.974224090576172
-2.306662082672119 1.8472063541412354 6.713037967681885
-3.05751633644104 1.736788272857666 8.924352645874023
-3.05751633644104 1.736788272857666 8.924352645874023
-4.829339981079102 1.4373160600662231 14.095550537109375
-4.829339981079102 1.4373160600662231 14.095550537109375
-2.413970947265625 1.8098458051681519 7.0569281578063965
-2.413970947265625 1.8098458051681519 7.0569281578063965
-2.993032217025757 1.734117865562439 8.788431167602539
-3.0672152042388916 1.7313077449798584 9.01412582397461
-6.465622901916504 0.06274224817752838 19.05710220336914
-2.43339204788208 1.8099123239517212 7.193643569946289
-2.3252687454223633 1.8204528093338013 6.886096477508545
-2.837820291519165 1.77054762840271 8.425087928771973
-2.6998260021209717 1.7785887718200684 8.043155670166016
-2.4630918502807617 1.827775478363037 7.354095458984375
-4.012596607208252 1.5656770467758179 11.975614547729492
-4.102494239807129 1.5394203662872314 12.260924339294434
-4.102494239807129 1.5394203662872314 12.260924339294434
-2.9841885566711426 1.7417809963226318 8.941499710083008
-2.317859411239624 1.80743408203125 6.943414211273193
-4.7114105224609375 1.4309340715408325 14.129098892211914
-2.87373685836792 1.7512532472610474 8.637150764465332
-3.0476059913635254 1.7391198873519897 9.173641204833984
-2.8349735736846924 1.7539929151535034 8.562207221984863
-2.469437599182129 1.800345540046692 7.470445156097412
-2.3322532176971436 1.8097678422927856 7.058908462524414
-2.934220790863037 1.731095314025879 8.888399124145508
-2.757148027420044 1.7513717412948608 8.375636100769043
-4.627205848693848 1.436107873916626 14.149094581604004
-3.120453119277954 1.724060297012329 9.576354026794434
-2.738372564315796 1.7575098276138306 8.40661334991455
-4.349976062774658 1.450953722000122 13.380253791809082
-4.46280574798584 1.5102825164794922 13.74266242980957
-2.7937896251678467 1.7283252477645874 8.64533519744873
-2.584277391433716 1.8032156229019165 8.03176498413086
-2.292813777923584 1.8061240911483765 7.1257829666137695
-4.201705455780029 0.9580000638961792 13.089864730834961
-2.653963565826416 1.7719064950942993 8.270565032958984
-2.653963565826416 1.7719064950942993 8.270565032958984
-2.8001039028167725 1.7301501035690308 8.756882667541504
-2.271648406982422 1.8333170413970947 7.13317346572876
-3.978093147277832 1.1561229228973389 12.512179374694824
-2.2744619846343994 1.826640248298645 7.163259506225586
-4.39409065246582 1.437002182006836 13.827492713928223
-4.304450511932373 1.3054614067077637 13.584007263183594
-4.184435844421387 1.0029535293579102 13.234320640563965
-2.2007334232330322 1.818756103515625 6.969412803649902
-2.850123405456543 1.7384732961654663 9.041065216064453
-2.850123405456543 1.7384732961654663 9.041065216064453
-4.104086875915527 0.8902943134307861 13.017401695251465
-2.586059331893921 1.7677971124649048 8.218754768371582
-3.732914924621582 1.4284285306930542 11.869651794433594
-3.732914924621582 1.4284285306930542 11.869651794433594
-4.0968337059021 1.226635456085205 13.05722713470459
-6.166492938995361 0.1119602844119072 19.649803161621094
-6.166492938995361 0.1119602844119072 19.649803161621094
-2.211611270904541 1.8135366439819336 7.064067363739014
-2.211611270904541 1.8135366439819336 7.064067363739014
-2.9532923698425293 1.7011598348617554 9.441035270690918
-3.710357427597046 1.56955087184906 11.916007995605469
-3.8042256832122803 1.0434582233428955 12.239526748657227
-2.8088033199310303 1.7648391723632812 9.046784400939941
-2.2372610569000244 1.7866947650909424 7.198648452758789
-2.441983222961426 1.8096274137496948 7.866799831390381
-5.0056471824646 0.5991870760917664 16.14536476135254
-2.2273190021514893 1.802356243133545 7.1850666999816895
-2.5031862258911133 1.7752931118011475 8.083105087280273
-2.724428653717041 1.7418104410171509 8.813675880432129
-4.838913440704346 0.6753239035606384 15.672661781311035
-2.5659313201904297 1.7620888948440552 8.311850547790527
-4.779839038848877 0.7865544557571411 15.491825103759766
-4.496950626373291 0.8959321975708008 14.604948997497559
-5.054902076721191 0.6286486387252808 16.452943801879883
-2.4801743030548096 1.782199501991272 8.071819305419922
-2.4801743030548096 1.782199501991272 8.071819305419922
-4.828523635864258 0.5393038392066956 15.735407829284668
-2.8913657665252686 1.6989771127700806 9.427661895751953
-3.555055618286133 1.5454319715499878 11.597749710083008
-4.805671691894531 0.562155544757843 15.71257209777832
-4.912596225738525 0.5195634961128235 16.09010887145996
-2.5742242336273193 1.7539457082748413 8.44603443145752
-5.2368035316467285 0.4243961572647095 17.240169525146484
-4.802590370178223 0.5846347212791443 15.829665184020996
-2.735757350921631 1.7350481748580933 9.02060604095459
-4.8787126541137695 0.6281988024711609 16.105148315429688
-4.758138179779053 0.7663683891296387 15.71866226196289
-4.054312229156494 1.5484614372253418 13.38283634185791
-2.690462589263916 1.738524079322815 8.914849281311035
-1.9579644203186035 1.858286738395691 6.485245227813721
-4.491684436798096 0.8784546852111816 14.901527404785156
-2.098665475845337 1.834826111793518 6.977769374847412
-2.098665475845337 1.834826111793518 6.977769374847412
-4.634620189666748 0.7721341252326965 15.465254783630371
-2.0638720989227295 1.828655481338501 6.90073299407959
-5.169467926025391 0.4099622666835785 17.284305572509766
-2.1691958904266357 1.8032052516937256 7.25528621673584
-3.7540009021759033 1.5996183156967163 12.560636520385742
-2.488269090652466 1.762966513633728 8.337276458740234
-2.1428020000457764 1.8080554008483887 7.1789231300354
-4.40089750289917 0.8947760462760925 14.7726469039917
-2.398240804672241 1.7815619707107544 8.05947494506836
-2.398240804672241 1.7815619707107544 8.05947494506836
-2.686894416809082 1.742828369140625 9.052593231201172
-3.9203743934631348 1.1454886198043823 13.209230422973633
-1.937480092048645 1.8507484197616577 6.529395580291748
-4.519053936004639 0.6280568838119507 15.250228881835938
-5.354828834533691 0.3275357186794281 18.0772762298584
-1.9830663204193115 1.8358349800109863 6.692854404449463
-1.9002968072891235 1.8839844465255737 6.412184715270996
-5.369298934936523 0.2710217833518982 18.14199447631836
-5.4221510887146 0.2441820651292801 18.37575340270996
-2.2593400478363037 1.7793402671813965 7.657546043395996
-5.010674953460693 0.4653305113315582 17.020973205566406
-4.13461446762085 1.4230375289916992 14.03590202331543
-4.024769306182861 1.0349725484848022 13.701165199279785
-6.029078960418701 0.17696702480316162 20.58885955810547
-4.0373663902282715 0.9707220196723938 13.792582511901855
-4.005245685577393 1.0699490308761597 13.69046401977539
-2.5841286182403564 1.7464182376861572 8.833128929138184
-2.267249345779419 1.7857753038406372 7.749411582946777
-5.08248233795166 0.5139354467391968 17.381275177001953
-2.3688743114471436 1.7557487487792969 8.10336685180664
-2.2807986736297607 1.785075068473816 7.831962585449219
-1.9458225965499878 1.8341383934020996 6.69071626663208
-5.159701824188232 0.43782129883766174 17.75014877319336
-2.0003440380096436 1.8223977088928223 6.882359504699707
-2.4950315952301025 1.7583246231079102 8.589977264404297
-2.053652286529541 1.8221181631088257 7.083972930908203
-2.053652286529541 1.8221181631088257 7.083972930908203
-1.885051965713501 1.8626679182052612 6.504446983337402
-2.436150312423706 1.7626579999923706 8.432430267333984
-3.5880472660064697 1.5853056907653809 12.447563171386719
-5.342152118682861 0.29244881868362427 18.54014778137207
-2.3013412952423096 1.7723937034606934 8.006390571594238
-2.467268943786621 1.7431892156600952 8.59702205657959
-2.2049551010131836 1.7882453203201294 7.709596157073975
-3.6229169368743896 1.5635097026824951 12.660592079162598
-3.866164445877075 1.171069622039795 13.529635429382324
-4.573213577270508 0.5470268726348877 16.032747268676758
-3.864591360092163 1.1233636140823364 13.55826473236084
-3.864591360092163 1.1233636140823364 13.55826473236084
-5.467475414276123 0.20541779696941376 19.18225860595703
-5.538876056671143 0.12523630261421204 19.5181941986084
-4.549294948577881 0.7414944767951965 16.044292449951172
-4.549294948577881 0.7414944767951965 16.044292449951172
-2.6543338298797607 1.6960262060165405 9.396649360656738
-2.6543338298797607 1.6960262060165405 9.396649360656738
-2.148585557937622 1.79922354221344 7.618804454803467
-2.5125536918640137 1.725113034248352 8.959022521972656
-4.842322826385498 1.801429033279419 17.30056381225586
-3.8501975536346436 1.3861629962921143 13.785354614257812
-5.9544525146484375 0.185439795255661 21.374492645263672
-5.840353012084961 0.178420752286911 20.97216033935547
-2.243143320083618 1.7680054903030396 8.06845474243164
-1.96861732006073 1.8233203887939453 7.084352016448975
-4.801657199859619 0.5488793253898621 17.40880012512207
-2.2010955810546875 1.7624865770339966 7.988343238830566
-2.0807363986968994 1.7874819040298462 7.5558552742004395
-2.0807363986968994 1.7874819040298462 7.5558552742004395
-1.893450140953064 1.8230619430541992 6.882751941680908
-2.086289644241333 1.7861502170562744 7.615692615509033
-2.349250078201294 1.7471380233764648 8.607704162597656
-2.349250078201294 1.7471380233764648 8.607704162597656
-2.0961196422576904 1.790220856666565 7.697628498077393
-4.808093070983887 0.48455876111984253 17.75421905517578
-2.009298801422119 1.7994403839111328 7.439607620239258
-1.7966779470443726 1.8534023761749268 6.661803245544434
-2.3052167892456055 1.7561511993408203 8.56830883026123
-3.9271154403686523 1.0160703659057617 14.607574462890625
-4.0141730308532715 0.9024315476417542 14.966876983642578
-4.5741705894470215 0.538884699344635 17.069446563720703
-4.5741705894470215 0.538884699344635 17.069446563720703
-1.8470274209976196 1.8261735439300537 6.8900322914123535
-3.549757719039917 1.4013434648513794 13.24625015258789
-3.549757719039917 1.4013434648513794 13.24625015258789
-2.504951238632202 1.6866888999938965 9.359201431274414
-1.9224035739898682 1.815996527671814 7.1933417320251465
-3.437967538833618 1.5169724225997925 12.88446044921875
-2.1261754035949707 1.7779637575149536 7.989046096801758
-2.1261754035949707 1.7779637575149536 7.989046096801758
-2.0384016036987305 1.7940105199813843 7.7042694091796875
-1.6969059705734253 1.882999300956726 6.427840709686279
-5.496699810028076 0.323550283908844 20.864377975463867
-3.8905487060546875 1.338169813156128 14.768038749694824
-3.8462657928466797 1.270349383354187 14.612203598022461
-3.716876983642578 1.3781452178955078 14.125811576843262
-3.661606788635254 1.4166194200515747 13.930309295654297
-2.4640491008758545 1.6934633255004883 9.379560470581055
-4.023478031158447 1.0690627098083496 15.334750175476074
-2.179126024246216 1.7537113428115845 8.33919906616211
-2.251340389251709 1.7755296230316162 8.63066577911377
-2.383216142654419 1.7160240411758423 9.138278007507324
-3.649937152862549 1.4622544050216675 14.009123802185059
-1.8149116039276123 1.819300651550293 6.977414608001709
-1.976364254951477 1.8007086515426636 7.612041473388672
-2.0772523880004883 1.778937816619873 8.019752502441406
-3.679487705230713 1.460720181465149 14.205305099487305
-3.7233126163482666 1.292738914489746 14.426234245300293
-1.8194365501403809 1.8169565200805664 7.060523986816406
-3.738435745239258 1.2833958864212036 14.677921295166016
-3.5477473735809326 1.444459080696106 13.933418273925781
-3.5477473735809326 1.444459080696106 13.933418273925781
-1.9811503887176514 1.7857428789138794 7.809051036834717
-2.0844786167144775 1.7819404602050781 8.22710132598877
-2.2112877368927 1.7381097078323364 8.720049858093262
-1.778698205947876 1.8236215114593506 7.029942989349365
-1.778698205947876 1.8236215114593506 7.029942989349365
-1.728851556777954 1.8237422704696655 6.875356674194336
-2.2337896823883057 1.7381123304367065 8.889485359191895
-2.287837505340576 1.7280313968658447 9.19405746459961
-1.9189491271972656 1.7933318614959717 7.7160868644714355
-1.7216254472732544 1.8230047225952148 6.922587871551514
-1.7216254472732544 1.8230047225952148 6.922587871551514
-1.9869879484176636 1.7871109247207642 7.993451118469238
-2.3073127269744873 1.6817705631256104 9.31757640838623
-2.3073127269744873 1.6817705631256104 9.31757640838623
-1.6558767557144165 1.8417471647262573 6.705855846405029
-1.9393293857574463 1.8014730215072632 7.882580757141113
-1.9393293857574463 1.8014730215072632 7.882580757141113
-1.773220181465149 1.8179919719696045 7.223535537719727
-3.5639901161193848 1.2902617454528809 14.516220092773438
-1.8279529809951782 1.813996434211731 7.470878601074219
-2.072345495223999 1.7694275379180908 8.494162559509277
-1.567265510559082 1.8842658996582031 6.434352397918701
-1.7370351552963257 1.808294415473938 7.1636857986450195
-1.9776960611343384 1.7619012594223022 8.169540405273438
-1.9776960611343384 1.7619012594223022 8.169540405273438
-1.6650744676589966 1.8267937898635864 6.884894847869873
-1.6650744676589966 1.8267937898635864 6.884894847869873
-1.6780011653900146 1.8210513591766357 6.970523357391357
-1.6780011653900146 1.8210513591766357 6.970523357391357
-2.0843327045440674 1.7369885444641113 8.660527229309082
-2.081469774246216 1.722538709640503 8.811836242675781
-1.8163334131240845 1.7895971536636353 7.777617931365967
-2.491825580596924 1.6114702224731445 10.690116882324219
-1.666786551475525 1.8078876733779907 7.154367446899414
-1.607337474822998 1.819306492805481 6.905090808868408
-1.607337474822998 1.819306492805481 6.905090808868408
-2.174415111541748 1.6875050067901611 9.339519500732422
-1.6183321475982666 1.818122148513794 6.955135822296143
-2.007108211517334 1.7404494285583496 8.672191619873047
-1.926844835281372 1.7520955801010132 8.326192855834961
-1.926844835281372 1.7520955801010132 8.326192855834961
-1.7216445207595825 1.8030428886413574 7.4517598152160645
-1.8896021842956543 1.7689226865768433 8.182101249694824
-1.769541621208191 1.7928262948989868 7.748037338256836
-1.8865324258804321 1.753241777420044 8.296363830566406
-2.003816843032837 1.7332056760787964 8.853771209716797
-1.5115485191345215 1.8365567922592163 6.67372465133667
-2.0654256343841553 1.7082794904708862 9.192679405212402
-1.9966052770614624 1.7240091562271118 8.919726371765137
-3.321861982345581 1.2919600009918213 14.863471984863281
-3.321861982345581 1.2919600009918213 14.863471984863281
-3.321861982345581 1.2919600009918213 14.863471984863281
-1.860139012336731 1.7495462894439697 8.321551322937012
-1.6711900234222412 1.7923411130905151 7.539499759674072
-3.2880940437316895 1.317750096321106 14.931156158447266
-1.7138874530792236 1.7898002862930298 7.795201301574707
-1.7197942733764648 1.7902172803878784 7.850717544555664
-2.0482382774353027 1.6927480697631836 9.358524322509766
-1.898905873298645 1.7253448963165283 8.807185173034668
-1.6232751607894897 1.7996070384979248 7.555568695068359
-1.5098495483398438 1.8159936666488647 7.052170753479004
-1.5902854204177856 1.8027009963989258 7.43726921081543
-1.3847819566726685 1.8704622983932495 6.4714555740356445
-1.7754446268081665 1.7574048042297363 8.354362487792969
-1.89816153049469 1.7066643238067627 8.953086853027344
-1.436845302581787 1.8293430805206299 6.807993412017822
-3.027353525161743 1.4775892496109009 14.352245330810547
-1.9607970714569092 1.684958577156067 9.309121131896973
-1.6393994092941284 1.787300705909729 7.7956061363220215
-1.4593875408172607 1.81412935256958 6.938482284545898
-1.3859249353408813 1.8345553874969482 6.6272358894348145
-1.7547123432159424 1.7571697235107422 8.409171104431152
-1.7086927890777588 1.7673135995864868 8.222043991088867
-1.8099067211151123 1.7291251420974731 8.71074104309082
-2.896559000015259 1.537399411201477 13.99385929107666
-1.779666781425476 1.7317681312561035 8.620658874511719
-1.4581595659255981 1.819621205329895 7.066880702972412
-1.920413851737976 1.6898181438446045 9.334534645080566
-1.8117605447769165 1.7285792827606201 8.824365615844727
-1.7442020177841187 1.753345012664795 8.49963665008545
-2.9455063343048096 1.5144546031951904 14.354480743408203
-1.7023259401321411 1.7565248012542725 8.339648246765137
-3.092135190963745 1.3213685750961304 15.1935453414917
-1.4619735479354858 1.8176679611206055 7.197690010070801
-1.461079478263855 1.812809705734253 7.193486213684082
-2.8753111362457275 1.4944199323654175 14.31856632232666
-1.5403282642364502 1.788944125175476 7.779066562652588
-1.8356568813323975 1.6981209516525269 9.372541427612305
-1.691741943359375 1.7237211465835571 8.850248336791992
-1.371395230293274 1.8317124843597412 7.1776347160339355
-2.687598705291748 1.5123639106750488 14.11984634399414
-2.626431941986084 1.423213005065918 13.903047561645508
-1.7000776529312134 1.704619288444519 9.048725128173828
-1.6025774478912354 1.735504150390625 8.628934860229492
-3.0084376335144043 0.9936116337776184 16.29853630065918
-2.634643793106079 1.4800995588302612 14.2606782913208
-2.717973470687866 1.2867904901504517 14.789501190185547
-1.3802379369735718 1.8025070428848267 7.558811187744141
-1.3802379369735718 1.8025070428848267 7.558811187744141
-1.5489131212234497 1.7339987754821777 8.492256164550781
-1.4287450313568115 1.8110332489013672 7.868315696716309
-1.6834371089935303 1.68540620803833 9.306780815124512
-1.5648460388183594 1.7345222234725952 8.737221717834473
-1.523398518562317 1.7425247430801392 8.599845886230469
-1.6167939901351929 1.702948808670044 9.146513938903809
-1.5595197677612305 1.7303441762924194 8.823410034179688
-1.5595197677612305 1.7303441762924194 8.823410034179688
-1.5613020658493042 1.7149198055267334 9.08910846710205
-1.5061513185501099 1.7231543064117432 8.792073249816895
-2.421901226043701 1.4630545377731323 14.151074409484863
-2.421901226043701 1.4630545377731323 14.151074409484863
-2.424438953399658 1.4724403619766235 14.450122833251953
-2.424438953399658 1.4724403619766235 14.450122833251953
-1.5006330013275146 1.7115097045898438 8.961441993713379
-1.4182729721069336 1.744227647781372 8.498248100280762
-1.4311256408691406 1.7482407093048096 8.630681037902832
-2.380448579788208 1.495561122894287 14.455204010009766
-2.380448579788208 1.495561122894287 14.455204010009766
-1.4108432531356812 1.7442771196365356 8.770567893981934
-1.4129999876022339 1.7462551593780518 8.871976852416992
-1.405186414718628 1.7221441268920898 8.893465995788574
-2.295233964920044 1.5744576454162598 14.71717643737793
-1.4499542713165283 1.6878522634506226 9.304483413696289
-2.264610767364502 1.3336243629455566 15.095582008361816
-1.4137965440750122 1.6930711269378662 9.400660514831543
-2.131648302078247 1.5599457025527954 14.733736038208008
-2.0459160804748535 1.5682158470153809 14.249067306518555
-2.05661678314209 1.5509048700332642 14.748577117919922
-1.8837352991104126 1.5560548305511475 14.348396301269531
-1.8839118480682373 1.5904802083969116 14.424661636352539
-1.8214606046676636 1.3714909553527832 14.820005416870117
-0.9967023134231567 0.19330699741840363 8.554478645324707
-1.6988673210144043 1.5468207597732544 14.766337394714355
-1.5410948991775513 1.5638601779937744 14.659642219543457
-1.395782232284546 1.6138150691986084 14.763030052185059
-1.3954026699066162 1.552149772644043 14.798008918762207
-1.3945850133895874 1.5788339376449585 14.830679893493652
-1.319139003753662 1.6025710105895996 15.526304244995117
-1.2370327711105347 1.49236261844635 14.553035736083984
-1.0562231540679932 1.5675932168960571 14.723967552185059
-1.0490790605545044 1.5242480039596558 14.6734619140625
-0.8800598978996277 1.5162771940231323 14.632615089416504
-0.6540693044662476 0.7287266254425049 12.452788352966309
-0.614137589931488 1.5550611019134521 14.414637565612793
-0.5849123597145081 1.496453046798706 14.336250305175781
-0.46774032711982727 1.583243727684021 11.923279762268066
-0.5342976450920105 1.3910166025161743 13.759654998779297
-0.5466548800468445 1.4066277742385864 14.135319709777832
-0.5482249855995178 1.1841554641723633 14.244287490844727
-0.3521222770214081 1.7282583713531494 9.41426944732666
-0.46366360783576965 1.5642364025115967 12.56281852722168
-0.4026080369949341 1.6335676908493042 11.340025901794434
-0.3815431296825409 1.6327003240585327 10.847027778625488
-0.44182050228118896 1.2898846864700317 14.09312915802002
-0.285307914018631 1.746079921722412 9.034570693969727
-0.2558595538139343 1.7814780473709106 8.546305656433105
-0.4052928686141968 1.5395230054855347 14.091317176818848
-0.3096431493759155 1.5257697105407715 14.40739631652832
-0.24772782623767853 1.1761524677276611 13.78693675994873
-0.07732050120830536 1.5262683629989624 14.495746612548828
0.00384406722150743 0.5439385175704956 10.688244819641113
0.0372479185461998 1.5608793497085571 12.907569885253906
0.10281878709793091 1.1921179294586182 10.699928283691406
0.1476319581270218 0.42982667684555054 11.238306045532227
0.1821192353963852 1.589945673942566 11.911788940429688
0.19649241864681244 0.4305028021335602 12.475043296813965
0.2163977026939392 1.5847809314727783 11.974344253540039
0.21579374372959137 0.3211674690246582 11.286476135253906
0.24084806442260742 1.177369236946106 10.956878662109375
0.27984437346458435 0.3685590326786041 11.339637756347656
0.3404797911643982 -0.1836709976196289 11.966273307800293
0.3300337493419647 1.6311447620391846 10.764196395874023
0.3750375807285309 0.3230176270008087 11.291487693786621
0.41201797127723694 0.1954314261674881 11.066582679748535
0.45591363310813904 0.24887335300445557 11.264425277709961
0.5211466550827026 1.639724850654602 11.67626667022705
0.5864582657814026 1.6101981401443481 13.035964965820312
0.5508034229278564 1.5650241374969482 11.709840774536133
0.5431279540061951 0.35488036274909973 11.238061904907227
0.6422598958015442 0.5608630180358887 11.377157211303711
0.6264368891716003 0.3105832040309906 10.829819679260254
0.6751826405525208 0.18821240961551666 11.242107391357422
0.725354790687561 0.5879822373390198 11.347251892089844
0.7478278279304504 0.17037250101566315 11.558333396911621
0.7478278279304504 0.17037250101566315 11.558333396911621
0.7402788400650024 0.20684801042079926 11.14736557006836
0.7358454465866089 0.20698925852775574 11.084708213806152
0.7666772603988647 0.3298620581626892 11.424363136291504
0.8311144709587097 1.634735345840454 12.270442008972168
0.8545552492141724 1.653265118598938 12.017389297485352
0.8389643430709839 0.5781086087226868 11.454583168029785
0.6828965544700623 0.4919423460960388 9.234062194824219
0.831512451171875 0.3441578149795532 11.08254337310791
0.8371811509132385 0.36862632632255554 11.136283874511719
0.7406102418899536 1.574949026107788 9.880803108215332
0.8491753339767456 0.3011767864227295 11.162303924560547
0.8282310366630554 1.6752287149429321 10.875297546386719
0.858635425567627 0.2573105990886688 11.208775520324707
0.8976798057556152 0.16353990137577057 11.492074012756348
0.8976798057556152 0.16353990137577057 11.492074012756348
0.8825106024742126 0.4828282296657562 11.24110221862793
0.8825106024742126 0.4828282296657562 11.24110221862793
0.8867318630218506 0.3723710775375366 11.167771339416504
0.7427108287811279 1.7471481561660767 9.23177719116211
0.7671301960945129 1.6943539381027222 9.405744552612305
0.9036520719528198 1.677976369857788 10.878686904907227
0.9121569395065308 0.5299783945083618 10.928956031799316
0.8015528917312622 1.6574440002441406 9.566123962402344
0.9323763847351074 0.31806501746177673 11.075936317443848
0.9722099900245667 0.17758570611476898 11.323066711425781
0.9722099900245667 0.17758570611476898 11.323066711425781
0.7904986143112183 1.7786556482315063 9.184847831726074
0.9926015138626099 0.5937496423721313 11.361161231994629
0.9845199584960938 0.2597012519836426 11.15378475189209
0.9921526908874512 0.21247723698616028 11.16757869720459
0.8024955987930298 1.7945998907089233 9.066872596740723
1.0114763975143433 0.551027774810791 11.289778709411621
0.993849515914917 0.5231439471244812 11.069297790527344
1.0174264907836914 0.302812784910202 11.128175735473633
1.0368330478668213 0.28716862201690674 11.272248268127441
0.7460646033287048 0.7542052865028381 7.90670108795166
0.7082363963127136 0.9919649362564087 6.971571445465088
0.7286943793296814 0.9705811738967896 7.024430751800537
0.8496525883674622 0.7714627981185913 7.7668328285217285
0.9365612864494324 -0.08672752231359482 8.28278923034668
0.9210589528083801 0.7415423393249512 8.019058227539062
0.9033195972442627 0.7801874876022339 7.8066229820251465
1.0956016778945923 -0.13571976125240326 9.114529609680176
0.8257524371147156 0.8389744758605957 6.739505767822266
0.8644977807998657 0.9961322546005249 6.966379642486572
0.9875352382659912 0.7070112824440002 7.864450454711914
0.9495624303817749 0.816124677658081 7.512019157409668
0.9957963824272156 0.7428839802742004 7.780461311340332
0.9946625232696533 0.5417719483375549 7.736562728881836
0.8697949647903442 0.8411679267883301 6.693872928619385
1.0367002487182617 0.5731825232505798 7.695395469665527
0.9195578098297119 0.8403098583221436 6.713041305541992
1.0621919631958008 0.7922061681747437 7.61652946472168
1.0797656774520874 0.7581125497817993 7.717893123626709
1.0777946710586548 0.5176258087158203 7.691263675689697
1.0766172409057617 0.6536194086074829 7.637203216552734
0.9830952882766724 0.8335549235343933 6.8984808921813965
1.0984498262405396 0.6183491349220276 7.5840606689453125
0.9086569547653198 0.85994553565979 6.270256519317627
1.0067787170410156 0.8230694532394409 6.938494682312012
1.138520359992981 0.5336236357688904 7.716688632965088
1.0141851902008057 0.8383714556694031 6.874532699584961
1.1376194953918457 0.6208552718162537 7.647546291351318
0.8883491158485413 0.8981660008430481 5.874087810516357
1.0706512928009033 0.830254077911377 6.9979681968688965
1.1812320947647095 0.7425089478492737 7.661428451538086
0.9423584938049316 0.8636837005615234 6.097602367401123
1.1643911600112915 0.5342190265655518 7.484796047210693
1.1643911600112915 0.5342190265655518 7.484796047210693
1.2008031606674194 0.7199761867523193 7.587380886077881
1.1844213008880615 0.5364021062850952 7.427881240844727
1.2021722793579102 0.5616978406906128 7.536988735198975
0.9749975204467773 0.8804150223731995 6.065127372741699
1.1047381162643433 0.842593252658844 6.83250617980957
0.9619821906089783 0.8839558362960815 5.947811603546143
1.241949200630188 0.691585123538971 7.600410461425781
1.241949200630188 0.691585123538971 7.600410461425781
1.2371662855148315 0.546718955039978 7.551280975341797
1.2371662855148315 0.546718955039978 7.551280975341797
1.2395782470703125 0.7194579243659973 7.560680866241455
1.2428714036941528 0.48601120710372925 7.534778118133545
1.2428714036941528 0.48601120710372925 7.534778118133545
1.2556043863296509 0.7324934005737305 7.5580878257751465
1.247369408607483 0.49449586868286133 7.480008602142334
1.247369408607483 0.49449586868286133 7.480008602142334
1.277426838874817 0.7157099843025208 7.568042278289795
0.8594074845314026 1.132614254951477 5.092181205749512
1.2756561040878296 0.4941909611225128 7.479504585266113
1.2856436967849731 0.5962212085723877 7.5116705894470215
1.1213403940200806 0.8665945529937744 6.518009185791016
1.1561944484710693 0.8537083864212036 6.700033187866211
1.1561944484710693 0.8537083864212036 6.700033187866211
0.9952103495597839 0.9080553650856018 5.75581169128418
1.3031197786331177 0.7089906334877014 7.472433567047119
0.9632373452186584 0.9112933874130249 5.518478870391846
1.3260117769241333 0.5188648104667664 7.53602409362793
1.0766229629516602 0.8823466897010803 6.10441780090332
1.0766229629516602 0.8823466897010803 6.10441780090332
1.1214807033538818 0.8729734420776367 6.311519622802734
1.349196195602417 0.48743611574172974 7.552286148071289
1.34675931930542 0.6299512982368469 7.452972412109375
1.3784428834915161 0.4899468421936035 7.544632434844971
1.3784428834915161 0.4899468421936035 7.544632434844971
1.3758457899093628 0.6546106338500977 7.415207386016846
0.9377622008323669 0.9743086099624634 5.0303754806518555
0.9653314352035522 0.9479338526725769 5.1236042976379395
0.9546535611152649 1.1300804615020752 5.040300369262695
0.9518834352493286 0.9661402106285095 5.011946201324463
1.3501744270324707 0.7930886149406433 7.107597827911377
1.4122387170791626 0.6263502836227417 7.4262285232543945
1.4090222120285034 0.6411149501800537 7.390650749206543
1.4132927656173706 0.6416915059089661 7.374150276184082
1.4132927656173706 0.6416915059089661 7.374150276184082
0.9458667635917664 0.9854019284248352 4.929080009460449
0.9534339904785156 0.9813083410263062 4.962173938751221
0.9572305083274841 0.9699438810348511 4.9814934730529785
1.4188143014907837 0.5936921238899231 7.3643059730529785
1.2298954725265503 0.8897896409034729 6.366934776306152
0.9977016448974609 0.9572345614433289 5.144848823547363
0.9526629447937012 0.9904730916023254 4.8661346435546875
1.4461796283721924 0.7576090097427368 7.346948623657227
1.4461796283721924 0.7576090097427368 7.346948623657227
1.3178609609603882 0.8393608331680298 6.662684440612793
1.4503822326660156 0.5684671401977539 7.310108661651611
1.4620044231414795 0.6218820214271545 7.363033294677734
1.4598205089569092 0.5697704553604126 7.345190525054932
1.461288571357727 0.7776303291320801 7.270690441131592
0.9741957783699036 0.9889146685600281 4.795867919921875
1.5011876821517944 0.6907815933227539 7.340773582458496
1.3397878408432007 0.848219633102417 6.538238048553467
1.5044726133346558 0.7156676650047302 7.298515796661377
1.329871416091919 0.8721714019775391 6.437811851501465
1.5165187120437622 0.7494956254959106 7.336358547210693
1.5282164812088013 0.6349930763244629 7.366629600524902
1.5282164812088013 0.6349930763244629 7.366629600524902
1.3790274858474731 0.8802131414413452 6.609989643096924
1.5432466268539429 0.6510689854621887 7.359767436981201
1.5368424654006958 0.5983274579048157 7.317384719848633
1.5368424654006958 0.5983274579048157 7.317384719848633
1.2839170694351196 0.8992772698402405 6.08745813369751
1.5324231386184692 0.7273626923561096 7.215132236480713
1.5535770654678345 0.7452164888381958 7.251655578613281
0.9631138443946838 1.0171343088150024 4.481500625610352
1.5676547288894653 0.6332709193229675 7.266744613647461
1.5676547288894653 0.6332709193229675 7.266744613647461
1.5719295740127563 0.5852770209312439 7.226044178009033
1.595334768295288 0.6694823503494263 7.321537017822266
1.014346957206726 1.0070687532424927 4.52894401550293
1.003569483757019 1.0105618238449097 4.45751428604126
0.9676014184951782 1.0274977684020996 4.297415256500244
0.993306577205658 1.0180854797363281 4.403120517730713
1.6530693769454956 0.7804694771766663 7.30820369720459
1.5810657739639282 0.7884490489959717 6.973039150238037
1.5500431060791016 0.787216067314148 6.822066783905029
1.034345269203186 1.006469488143921 4.543420314788818
1.595037817955017 0.7798082828521729 7.007312297821045
1.4419264793395996 0.8695054650306702 6.314938545227051
0.9900621175765991 1.0241328477859497 4.326725482940674
1.0602197647094727 0.9961792230606079 4.619339942932129
1.0602197647094727 0.9961792230606079 4.619339942932129
1.060658574104309 1.001039981842041 4.579596042633057
1.0964640378952026 0.986930251121521 4.728687286376953
1.6436280012130737 0.7815719842910767 7.076376914978027
1.1890515089035034 0.891518235206604 5.095743179321289
1.406273365020752 0.915189266204834 6.027784824371338
1.2161351442337036 0.9780028462409973 5.170698642730713
1.4542769193649292 0.9200118184089661 6.179206371307373
1.204253077507019 0.8649929761886597 5.096992492675781
1.204253077507019 0.8649929761886597 5.096992492675781
1.0279309749603271 1.0219453573226929 4.346835613250732
1.547453761100769 0.8053246140480042 6.505054473876953
1.525971531867981 0.8177198171615601 6.41224479675293
1.2445164918899536 0.9774410724639893 5.191481113433838
1.04727041721344 1.0203243494033813 4.328005790710449
1.1651678085327148 0.9890304207801819 4.808096408843994
1.56938898563385 0.820607602596283 6.365668773651123
1.5222601890563965 0.9106251001358032 6.101033687591553
1.720895767211914 0.8012008666992188 6.863656997680664
1.5809383392333984 0.8941996097564697 6.294632434844971
1.6810425519943237 0.819155752658844 6.685717582702637
1.6877700090408325 0.8216193914413452 6.706109523773193
1.084228515625 1.0346187353134155 4.2993483543396
1.6793276071548462 0.839625895023346 6.649530410766602
1.5391602516174316 0.9219023585319519 6.033177375793457
1.1277501583099365 1.0308347940444946 4.422301769256592
1.926548719406128 0.6261317133903503 7.461392879486084
1.6355953216552734 0.9134277701377869 6.231985092163086
1.2287046909332275 1.0059291124343872 4.662356376647949
1.9936718940734863 0.5287894606590271 7.534732341766357
2.0312623977661133 0.5010387301445007 7.586776256561279
2.0358028411865234 0.6841475963592529 7.573658466339111
1.8892366886138916 0.8648753762245178 6.999570369720459
2.059471607208252 0.5161264538764954 7.616334438323975
1.7303751707077026 0.8975366353988647 6.362998962402344
1.123298168182373 1.039017915725708 4.09935188293457
1.2594636678695679 1.003808617591858 4.589883804321289
1.666556477546692 0.9255475997924805 6.050499439239502
2.1507225036621094 0.6733106374740601 7.710297107696533
1.2779713869094849 0.9818735122680664 4.5831522941589355
1.2779713869094849 0.9818735122680664 4.5831522941589355
1.7482131719589233 0.9128401279449463 6.244886875152588
2.012113094329834 0.8557247519493103 7.14354944229126
1.8698831796646118 0.9033631086349487 6.4470720291137695
1.3136965036392212 0.9844444990158081 4.290689468383789
1.9464225769042969 0.9066432118415833 6.34208869934082
1.3101369142532349 1.0037131309509277 4.233465671539307
1.9573134183883667 0.910528302192688 6.310120582580566
2.0474424362182617 0.9183580875396729 6.578969478607178
1.2888590097427368 1.0403097867965698 4.139167785644531
2.1402041912078857 0.8986403346061707 6.854121685028076
1.3673242330551147 0.9940444231033325 4.260817527770996
1.3450322151184082 1.053543210029602 4.128971576690674
2.2644145488739014 0.9701122641563416 6.724756717681885
1.8185113668441772 0.8630272746086121 5.2683515548706055
1.8206273317337036 0.8608389496803284 5.270622253417969
6.185397148132324 1.7302513122558594 15.031780242919922
