ply
format ascii 1.0
element vertex 853
property float x
property float y
property float z
end_header
25.066120147705078 8.722909927368164 -0.7736226916313171
22.549020767211914 -1.228805661201477 0.8493503928184509
24.24022674560547 4.470171928405762 -0.20751111209392548
24.346881866455078 4.300138473510742 -0.2836489975452423
22.738481521606445 -1.252284288406372 0.5673275589942932
22.738481521606445 -1.252284288406372 0.5673275589942932
23.620702743530273 2.0073904991149902 -0.008915325626730919
24.707441329956055 6.5563063621521 -0.7611337900161743
24.707441329956055 6.5563063621521 -0.7611337900161743
24.733922958374023 8.811429977416992 -0.9267500042915344
24.733922958374023 8.811429977416992 -0.9267500042915344
24.338525772094727 6.752194404602051 -0.6475059390068054
23.637067794799805 4.611511707305908 -0.24485060572624207
23.678083419799805 1.7160799503326416 -0.07354070246219635
24.90557098388672 8.681313514709473 -1.0335012674331665
24.767932891845703 4.659882545471191 -0.7318080067634583
24.842554092407227 4.496139049530029 -0.7792981266975403
24.88055992126465 4.84196662902832 -0.8192393779754639
24.51809310913086 4.287039279937744 -0.6498583555221558
24.65740394592285 8.603775978088379 -0.9833772778511047
24.48979377746582 8.760361671447754 -0.9711732268333435
24.418611526489258 4.860879898071289 -0.714088499546051
24.418611526489258 4.860879898071289 -0.714088499546051
24.61126708984375 8.849079132080078 -1.0754749774932861
22.906118392944336 0.20028002560138702 0.1653592586517334
22.87166976928711 -0.5912224650382996 0.224252849817276
23.826034545898438 2.0358405113220215 -0.3605464994907379
23.006332397460938 -0.43832603096961975 0.09015826880931854
23.006332397460938 -0.43832603096961975 0.09015826880931854
22.427127838134766 -0.7948690056800842 0.3470117747783661
24.31791114807129 4.157742023468018 -0.7736212015151978
22.954511642456055 -0.5566317439079285 0.08677493035793304
22.954511642456055 -0.5566317439079285 0.08677493035793304
24.414344787597656 4.726702690124512 -0.8966110348701477
23.851768493652344 2.0654666423797607 -0.4906972646713257
23.851768493652344 2.0654666423797607 -0.4906972646713257
24.757226943969727 8.82657241821289 -1.331712007522583
23.71681022644043 1.9017125368118286 -0.47300273180007935
24.377670288085938 4.546058177947998 -0.9390872120857239
23.742177963256836 1.7385611534118652 -0.4939592778682709
23.06352424621582 -0.5332971811294556 -0.06715218722820282
22.99764633178711 -0.6992232799530029 -0.0687333270907402
24.23626136779785 4.221386432647705 -0.9174433946609497
22.99427032470703 -0.6031215786933899 -0.08311599493026733
24.604965209960938 8.722027778625488 -1.3719022274017334
24.61350440979004 8.634908676147461 -1.3885306119918823
24.61350440979004 8.634908676147461 -1.3885306119918823
24.383136749267578 4.787749767303467 -1.062165379524231
24.29521369934082 4.53214693069458 -1.0190905332565308
23.193437576293945 0.01865314319729805 -0.26010438799858093
23.807863235473633 1.8807545900344849 -0.6467437148094177
23.703304290771484 1.788570523262024 -0.613884687423706
23.772701263427734 1.6986974477767944 -0.6457810401916504
24.319244384765625 4.24270486831665 -1.0833097696304321
24.36318016052246 4.281294345855713 -1.135072946548462
23.496475219726562 1.650079369544983 -0.6074367761611938
24.60062026977539 8.838641166687012 -1.5544227361679077
23.845890045166016 4.663379192352295 -0.9646183848381042
23.845890045166016 4.663379192352295 -0.9646183848381042
23.698150634765625 1.7337074279785156 -0.7257777452468872
23.698150634765625 1.7337074279785156 -0.7257777452468872
23.12347984313965 -0.6575634479522705 -0.37026646733283997
23.12347984313965 -0.6575634479522705 -0.37026646733283997
24.321949005126953 4.593743324279785 -1.2433558702468872
24.34087562561035 4.434165000915527 -1.2563555240631104
24.34087562561035 4.434165000915527 -1.2563555240631104
24.281553268432617 4.272701740264893 -1.2338595390319824
24.281553268432617 4.272701740264893 -1.2338595390319824
22.836029052734375 -0.8026734590530396 -0.283673495054245
22.836029052734375 -0.8026734590530396 -0.283673495054245
24.339515686035156 8.836002349853516 -1.5769718885421753
24.339515686035156 8.836002349853516 -1.5769718885421753
24.412126541137695 8.54488468170166 -1.5977661609649658
23.163862228393555 -0.23707622289657593 -0.5008732676506042
24.289297103881836 4.201127052307129 -1.2870696783065796
24.382551193237305 8.670377731323242 -1.6269927024841309
24.382551193237305 8.670377731323242 -1.6269927024841309
23.378488540649414 0.03495854139328003 -0.6687741875648499
23.159238815307617 -0.07318577915430069 -0.5824918746948242
23.159238815307617 -0.07318577915430069 -0.5824918746948242
23.314388275146484 -0.3728924095630646 -0.6491782665252686
23.41459846496582 0.20811255276203156 -0.7329709529876709
23.41459846496582 0.20811255276203156 -0.7329709529876709
24.490236282348633 8.653656959533691 -1.769191026687622
24.490236282348633 8.653656959533691 -1.769191026687622
24.360885620117188 4.362887859344482 -1.4380178451538086
24.360885620117188 4.362887859344482 -1.4380178451538086
23.299423217773438 0.0955779030919075 -0.6879758834838867
24.350576400756836 6.155716896057129 -1.5589511394500732
23.95343589782715 8.87302303314209 -1.580027461051941
24.194171905517578 8.517520904541016 -1.722805142402649
24.918529510498047 8.976755142211914 -2.097627878189087
24.918529510498047 8.976755142211914 -2.097627878189087
24.476842880249023 8.764812469482422 -1.9583719968795776
24.476842880249023 8.764812469482422 -1.9583719968795776
24.162893295288086 8.985330581665039 -1.846879243850708
24.23055076599121 8.502286911010742 -1.8669298887252808
23.27219581604004 -0.346525102853775 -0.8524287939071655
23.173215866088867 -0.6662890911102295 -0.7876172661781311
23.173215866088867 -0.6662890911102295 -0.7876172661781311
24.1322021484375 8.912084579467773 -1.8916540145874023
24.495447158813477 4.72150182723999 -1.8035470247268677
23.345216751098633 0.19419090449810028 -1.028727412223816
23.24547004699707 -1.2774289846420288 -0.9312187433242798
24.345949172973633 8.679656028747559 -2.1427977085113525
24.037235260009766 9.429404258728027 -2.0582385063171387
24.037235260009766 9.429404258728027 -2.0582385063171387
23.118074417114258 -0.399934858083725 -0.9847164154052734
24.195568084716797 8.743408203125 -2.1146442890167236
24.09225082397461 9.316344261169434 -2.108445644378662
23.239307403564453 -0.3929294943809509 -1.1444097757339478
23.992549896240234 5.822330951690674 -1.9100594520568848
24.04238510131836 9.170300483703613 -2.157360553741455
24.62959098815918 4.850697040557861 -2.149472713470459
24.271114349365234 8.534473419189453 -2.237710952758789
24.05743408203125 9.597585678100586 -2.2128419876098633
24.133651733398438 8.702681541442871 -2.2086546421051025
24.642242431640625 8.728206634521484 -2.46940541267395
23.66864776611328 8.986392974853516 -2.060737133026123
23.66864776611328 8.986392974853516 -2.060737133026123
23.926599502563477 9.362778663635254 -2.2278807163238525
24.178909301757812 8.67068862915039 -2.3196024894714355
24.178909301757812 8.67068862915039 -2.3196024894714355
23.83209228515625 9.493080139160156 -2.227720022201538
23.218711853027344 0.179256871342659 -1.3203339576721191
23.373065948486328 -0.0035329603124409914 -1.409563422203064
24.20344352722168 9.260180473327637 -2.4418447017669678
24.20344352722168 9.260180473327637 -2.4418447017669678
24.289024353027344 4.694340705871582 -2.203847646713257
23.62047576904297 4.4750823974609375 -1.875256896018982
23.46444320678711 -0.02788562886416912 -1.5533008575439453
23.724092483520508 9.169515609741211 -2.3490593433380127
23.6539363861084 9.570660591125488 -2.3836722373962402
23.882747650146484 8.422394752502441 -2.417390823364258
23.636735916137695 8.76846981048584 -2.382934093475342
23.52853012084961 9.424777030944824 -2.392920732498169
24.254146575927734 6.515661239624023 -2.5489745140075684
23.586700439453125 9.102951049804688 -2.4274206161499023
23.586700439453125 9.102951049804688 -2.4274206161499023
22.936445236206055 10.577486991882324 -2.2316653728485107
23.52956199645996 0.39440467953681946 -1.864428997039795
23.71416664123535 9.274102210998535 -2.572169065475464
24.37481689453125 5.86281681060791 -2.686276435852051
23.90315818786621 8.738378524780273 -2.668639898300171
22.768999099731445 9.754778861999512 -2.236356019973755
24.10000228881836 4.479147911071777 -2.5735890865325928
23.194265365600586 0.005399904679507017 -1.873441219329834
23.932109832763672 8.472915649414062 -2.828338146209717
23.932109832763672 8.472915649414062 -2.828338146209717
23.906238555908203 8.653217315673828 -2.841871500015259
25.083526611328125 7.865839004516602 -3.386031150817871
23.748130798339844 9.351344108581543 -2.8429927825927734
23.748130798339844 9.351344108581543 -2.8429927825927734
24.309858322143555 6.504154682159424 -3.009442090988159
24.444997787475586 6.698309421539307 -3.1463963985443115
23.90045738220215 8.571375846862793 -3.0185317993164062
23.738056182861328 8.920952796936035 -2.9985103607177734
24.168533325195312 6.5546040534973145 -3.0674431324005127
24.1856746673584 6.074148654937744 -3.045692205429077
23.359445571899414 10.166548728942871 -2.954070806503296
23.223026275634766 9.001646041870117 -2.817986249923706
24.2866153717041 6.003665924072266 -3.18422532081604
24.2866153717041 6.003665924072266 -3.18422532081604
24.0173282623291 4.320253849029541 -2.9431979656219482
23.66053581237793 9.287575721740723 -3.1087958812713623
23.66053581237793 9.287575721740723 -3.1087958812713623
23.855173110961914 8.834057807922363 -3.1881332397460938
24.07070541381836 8.547294616699219 -3.2892632484436035
24.3448429107666 6.352948188781738 -3.2918028831481934
24.06612205505371 6.653990268707275 -3.175295829772949
23.688430786132812 9.247718811035156 -3.166125535964966
23.480056762695312 9.040397644042969 -3.055079698562622
24.242900848388672 6.198507785797119 -3.2470035552978516
24.202985763549805 6.529003620147705 -3.251506805419922
24.202985763549805 6.529003620147705 -3.251506805419922
24.245439529418945 6.408454895019531 -3.267716884613037
23.758716583251953 8.55563735961914 -3.1769049167633057
23.758716583251953 8.55563735961914 -3.1769049167633057
23.88383674621582 8.434378623962402 -3.263538122177124
24.170333862304688 4.770355224609375 -3.174544095993042
24.427814483642578 5.784537315368652 -3.3968286514282227
23.4389705657959 9.303695678710938 -3.1531169414520264
23.4389705657959 9.303695678710938 -3.1531169414520264
24.073341369628906 4.155065536499023 -3.126922845840454
24.070892333984375 4.360096454620361 -3.1412596702575684
24.027292251586914 6.568945407867432 -3.278327465057373
23.60030174255371 8.855551719665527 -3.246291160583496
23.854307174682617 8.586492538452148 -3.389827013015747
24.0823974609375 4.585395336151123 -3.2487728595733643
22.87157440185547 -1.8759022951126099 -2.183781147003174
22.87157440185547 -1.8759022951126099 -2.183781147003174
23.192174911499023 9.391167640686035 -3.1407570838928223
24.074710845947266 4.344466686248779 -3.2696352005004883
23.64608383178711 8.409712791442871 -3.392957925796509
24.061485290527344 4.359734058380127 -3.362898349761963
23.886035919189453 4.684530735015869 -3.320220708847046
24.33051300048828 4.699400901794434 -3.5539116859436035
24.990234375 3.297431707382202 -3.8108839988708496
23.474475860595703 8.570170402526855 -3.408393383026123
23.20195960998535 9.383282661437988 -3.32676362991333
23.686691284179688 8.471529006958008 -3.51838755607605
23.336299896240234 9.554387092590332 -3.4147238731384277
23.45681381225586 9.259505271911621 -3.46052622795105
24.047277450561523 4.580848693847656 -3.4446892738342285
23.51725959777832 8.78580379486084 -3.4786362648010254
23.407594680786133 8.201030731201172 -3.4082157611846924
23.38071632385254 8.481274604797363 -3.4145023822784424
23.38071632385254 8.481274604797363 -3.4145023822784424
23.804004669189453 9.021339416503906 -3.720177173614502
23.97321319580078 4.157301902770996 -3.4783267974853516
23.5867919921875 8.762062072753906 -3.599827289581299
23.5867919921875 8.762062072753906 -3.599827289581299
23.78433609008789 8.508599281311035 -3.7328906059265137
23.78433609008789 8.508599281311035 -3.7328906059265137
23.364656448364258 9.431053161621094 -3.5828027725219727
23.364656448364258 9.431053161621094 -3.5828027725219727
23.238943099975586 9.501424789428711 -3.5427870750427246
23.077749252319336 9.240828514099121 -3.4465854167938232
23.55402374267578 8.533536911010742 -3.653623580932617
23.683074951171875 9.138914108276367 -3.7672781944274902
23.690610885620117 8.936029434204102 -3.764009952545166
23.91703987121582 4.034143447875977 -3.550509214401245
23.97455596923828 4.609293460845947 -3.6392931938171387
24.159343719482422 4.0245137214660645 -3.716381311416626
17.738201141357422 7.332369804382324 -0.6113147139549255
23.528507232666016 8.606247901916504 -3.7785329818725586
23.528507232666016 8.606247901916504 -3.7785329818725586
23.944650650024414 4.102203845977783 -3.700932741165161
23.944650650024414 4.102203845977783 -3.700932741165161
23.159151077270508 8.73680591583252 -3.6209821701049805
23.801063537597656 4.007030963897705 -3.6431009769439697
23.878902435302734 4.584861755371094 -3.750910520553589
23.878902435302734 4.584861755371094 -3.750910520553589
23.85933494567871 4.168080806732178 -3.7172927856445312
23.45819664001465 8.533318519592285 -3.8226332664489746
23.45819664001465 8.533318519592285 -3.8226332664489746
23.391660690307617 9.06178092956543 -3.8307716846466064
23.33979606628418 8.984363555908203 -3.8219778537750244
23.436758041381836 8.403271675109863 -3.8432083129882812
23.2647705078125 8.951805114746094 -3.8152108192443848
23.2647705078125 8.951805114746094 -3.8152108192443848
23.283981323242188 9.384363174438477 -3.8716073036193848
23.43175506591797 8.750626564025879 -3.9185192584991455
24.00517463684082 4.337340831756592 -3.953806161880493
24.00517463684082 4.337340831756592 -3.953806161880493
23.110557556152344 8.746042251586914 -3.794177770614624
23.26838493347168 9.562674522399902 -4.006191253662109
23.26838493347168 9.562674522399902 -4.006191253662109
22.82257843017578 9.32335376739502 -3.7511792182922363
23.729394912719727 9.198944091796875 -4.241867542266846
23.729394912719727 9.198944091796875 -4.241867542266846
23.917152404785156 4.482555866241455 -4.0147199630737305
23.354934692382812 8.8074369430542 -4.058542251586914
23.354934692382812 8.8074369430542 -4.058542251586914
23.900602340698242 4.407218933105469 -4.057194232940674
23.092044830322266 8.915826797485352 -3.9603564739227295
23.506174087524414 8.411454200744629 -4.154246807098389
24.009977340698242 4.592348098754883 -4.204726219177246
24.009977340698242 4.592348098754883 -4.204726219177246
23.942838668823242 4.521429538726807 -4.185457706451416
23.266525268554688 8.671614646911621 -4.126091003417969
23.266525268554688 8.671614646911621 -4.126091003417969
22.871408462524414 9.21751880645752 -3.9884092807769775
23.996166229248047 4.2623419761657715 -4.268073081970215
23.84568977355957 4.033725261688232 -4.17016077041626
23.84568977355957 4.033725261688232 -4.17016077041626
23.84568977355957 4.033725261688232 -4.17016077041626
23.358415603637695 8.818133354187012 -4.24842643737793
24.129737854003906 4.681167125701904 -4.420010566711426
23.909435272216797 4.214298248291016 -4.3106465339660645
22.632064819335938 10.327743530273438 -4.085341453552246
23.23938751220703 8.876203536987305 -4.373297691345215
23.953224182128906 7.000351905822754 -4.682521343231201
23.8196964263916 4.150367736816406 -4.510244846343994
23.052473068237305 9.100601196289062 -4.50245475769043
22.962787628173828 8.885608673095703 -4.437106132507324
22.962787628173828 8.885608673095703 -4.437106132507324
31.8076171875 5.242455005645752 -9.268993377685547
24.13372230529785 1.1943682432174683 -4.597565650939941
23.405811309814453 8.76893424987793 -4.7331061363220215
22.904891967773438 9.280219078063965 -4.494046211242676
23.01096534729004 8.761343955993652 -4.554234504699707
22.94518280029297 8.896990776062012 -4.628648281097412
22.94518280029297 8.896990776062012 -4.628648281097412
22.60942840576172 9.162199020385742 -4.476792335510254
22.60942840576172 9.162199020385742 -4.476792335510254
23.799007415771484 4.712101459503174 -4.862946033477783
21.93294906616211 10.688234329223633 -4.218062877655029
22.757213592529297 9.04207706451416 -4.604022979736328
22.757213592529297 9.04207706451416 -4.604022979736328
23.287195205688477 8.455795288085938 -4.919408321380615
22.613590240478516 8.754961013793945 -4.572133541107178
22.865211486816406 9.219691276550293 -4.755786418914795
23.63039779663086 4.59493350982666 -4.9632978439331055
23.81879425048828 4.52675199508667 -5.081127643585205
22.700706481933594 9.160895347595215 -4.813279628753662
22.700706481933594 9.160895347595215 -4.813279628753662
22.641990661621094 11.094409942626953 -4.923347473144531
22.582874298095703 8.864424705505371 -4.730241775512695
22.798751831054688 8.176407814025879 -4.823136329650879
23.735017776489258 4.717193126678467 -5.133411407470703
22.581266403198242 9.23916244506836 -4.81434440612793
22.523174285888672 9.331103324890137 -4.822232723236084
22.523174285888672 9.331103324890137 -4.822232723236084
23.40475082397461 4.847010135650635 -5.080564498901367
23.52857208251953 4.530245780944824 -5.161976337432861
22.5367374420166 9.32380199432373 -4.979031562805176
22.809667587280273 8.335061073303223 -5.100231170654297
22.809667587280273 8.335061073303223 -5.100231170654297
23.031164169311523 4.6395769119262695 -5.0158371925354
22.632165908813477 9.323102951049805 -5.154591083526611
22.632165908813477 9.323102951049805 -5.154591083526611
23.70797348022461 7.066393852233887 -5.664670944213867
22.802349090576172 8.941242218017578 -5.281692028045654
21.722675323486328 0.029995175078511238 -3.970933198928833
21.722675323486328 0.029995175078511238 -3.970933198928833
22.499202728271484 9.046032905578613 -5.143832206726074
22.392675399780273 8.56968879699707 -5.058411598205566
23.470285415649414 4.61293888092041 -5.458209037780762
23.470285415649414 4.61293888092041 -5.458209037780762
22.94589614868164 8.32437801361084 -5.509103775024414
22.42267417907715 8.988077163696289 -5.26375150680542
22.42267417907715 8.988077163696289 -5.26375150680542
22.648326873779297 8.369539260864258 -5.470379829406738
22.261547088623047 8.545812606811523 -5.268845081329346
23.12889289855957 6.864400386810303 -5.6858649253845215
21.292652130126953 10.732847213745117 -4.835353851318359
21.960020065307617 9.19871711730957 -5.1842169761657715
22.497583389282227 8.58120346069336 -5.514758586883545
22.497583389282227 8.58120346069336 -5.514758586883545
22.795413970947266 8.300230026245117 -5.725124835968018
22.429983139038086 8.722771644592285 -5.529471397399902
23.251155853271484 5.210464000701904 -5.832784175872803
23.251155853271484 5.210464000701904 -5.832784175872803
23.251155853271484 5.210464000701904 -5.832784175872803
22.0768985748291 9.241678237915039 -5.431692600250244
21.557191848754883 10.957208633422852 -5.280624866485596
22.70156478881836 8.891721725463867 -5.876145839691162
22.413127899169922 8.732483863830566 -5.747377872467041
23.590084075927734 5.041484355926514 -6.295800685882568
23.40757942199707 4.8785247802734375 -6.170400619506836
21.4906063079834 10.715228080749512 -5.423789978027344
23.267541885375977 4.785146713256836 -6.1132378578186035
22.21175765991211 8.951675415039062 -5.805805683135986
22.21175765991211 8.951675415039062 -5.805805683135986
23.353910446166992 4.566981315612793 -6.217116355895996
23.353910446166992 4.566981315612793 -6.217116355895996
23.21199607849121 4.734899044036865 -6.214046478271484
22.902786254882812 4.37583065032959 -6.002213001251221
23.047563552856445 4.80326509475708 -6.136958599090576
22.529687881469727 8.24225902557373 -6.080346584320068
23.23123550415039 4.645415306091309 -6.266162395477295
22.186506271362305 8.894789695739746 -5.940062999725342
22.126041412353516 8.544181823730469 -5.950267314910889
22.126041412353516 8.544181823730469 -5.950267314910889
23.364896774291992 6.63913106918335 -6.646135330200195
23.03943634033203 4.424141883850098 -6.286894798278809
22.34514808654785 8.292509078979492 -6.158729076385498
22.34514808654785 8.292509078979492 -6.158729076385498
23.125328063964844 4.547266483306885 -6.400891304016113
23.02729034423828 6.308197498321533 -6.488277435302734
22.29163932800293 8.665212631225586 -6.192939758300781
22.29163932800293 8.665212631225586 -6.192939758300781
23.128849029541016 4.648448467254639 -6.522014617919922
22.04911231994629 9.044605255126953 -6.157795429229736
22.62169075012207 8.176859855651855 -6.4824538230896
22.284286499023438 8.896794319152832 -6.387101173400879
22.284286499023438 8.896794319152832 -6.387101173400879
23.10025405883789 4.488831996917725 -6.619484901428223
23.144086837768555 6.387279033660889 -6.803318977355957
23.032663345336914 6.219282150268555 -6.723653793334961
23.063493728637695 4.618229866027832 -6.706435680389404
21.774765014648438 8.038894653320312 -6.136051654815674
22.488882064819336 6.351224422454834 -6.517009735107422
22.909202575683594 6.3022918701171875 -6.795967102050781
22.78990936279297 6.4951348304748535 -6.744857311248779
22.02586555480957 8.599536895751953 -6.4418625831604
22.02586555480957 8.599536895751953 -6.4418625831604
21.76767349243164 8.16610050201416 -6.255978107452393
21.66155242919922 8.413507461547852 -6.208614826202393
8.385865211486816 2.374323844909668 3.2269673347473145
22.141021728515625 8.80936336517334 -6.594951152801514
21.745983123779297 8.960487365722656 -6.367133140563965
22.924301147460938 4.560294151306152 -6.82766056060791
22.924301147460938 4.560294151306152 -6.82766056060791
22.924301147460938 4.560294151306152 -6.82766056060791
22.805419921875 6.194454193115234 -6.889064311981201
22.009323120117188 8.712808609008789 -6.547708034515381
22.009323120117188 8.712808609008789 -6.547708034515381
21.760284423828125 9.154291152954102 -6.496674060821533
22.914886474609375 4.598821640014648 -6.95746374130249
22.110441207885742 8.486005783081055 -6.747664928436279
21.539236068725586 8.652905464172363 -6.43455696105957
21.79004669189453 8.587343215942383 -6.612415313720703
22.92456817626953 4.491028785705566 -7.109675884246826
21.781749725341797 8.800867080688477 -6.700592041015625
22.432668685913086 5.8961639404296875 -6.939695358276367
22.432668685913086 5.8961639404296875 -6.939695358276367
21.6529483795166 8.130881309509277 -6.627382755279541
22.814184188842773 4.630971431732178 -7.233977794647217
22.814184188842773 4.630971431732178 -7.233977794647217
21.76706314086914 8.496211051940918 -6.865933895111084
21.76706314086914 8.496211051940918 -6.865933895111084
21.24822235107422 9.103838920593262 -6.554757118225098
21.24822235107422 9.103838920593262 -6.554757118225098
22.469053268432617 4.743542671203613 -7.085833549499512
22.8308048248291 6.280894756317139 -7.471704959869385
20.609926223754883 7.666396141052246 -6.1662187576293945
21.966047286987305 8.476459503173828 -7.2392497062683105
21.636062622070312 8.791522979736328 -7.086147785186768
21.636062622070312 8.791522979736328 -7.086147785186768
22.57368278503418 4.5908894538879395 -7.435243606567383
22.57368278503418 4.5908894538879395 -7.435243606567383
21.393936157226562 8.316767692565918 -6.924379348754883
21.393936157226562 8.316767692565918 -6.924379348754883
22.69312858581543 6.03163480758667 -7.676852703094482
22.595890045166016 4.682218074798584 -7.531590461730957
21.623510360717773 8.305280685424805 -7.1703104972839355
21.52096939086914 8.76873779296875 -7.304545879364014
21.52096939086914 8.76873779296875 -7.304545879364014
21.465560913085938 8.356860160827637 -7.297836780548096
21.688098907470703 8.511212348937988 -7.482537746429443
22.126195907592773 5.911985397338867 -7.592739105224609
21.02722930908203 8.641478538513184 -7.0539164543151855
21.02722930908203 8.641478538513184 -7.0539164543151855
22.655542373657227 4.414312362670898 -7.9441962242126465
21.108633041381836 9.026809692382812 -7.204050540924072
21.678699493408203 8.55777359008789 -7.596765041351318
21.428945541381836 8.638108253479004 -7.422510147094727
21.684581756591797 8.0656099319458 -7.570185661315918
22.423364639282227 6.3987345695495605 -8.002902030944824
22.271337509155273 6.090843677520752 -7.912537097930908
21.257585525512695 8.693785667419434 -7.388280391693115
21.127979278564453 8.235818862915039 -7.262578964233398
22.133058547973633 6.383509635925293 -7.9717864990234375
20.61989402770996 11.387919425964355 -7.291843414306641
22.25975799560547 4.455564498901367 -7.989983081817627
22.25975799560547 4.455564498901367 -7.989983081817627
20.834009170532227 9.558755874633789 -7.422412872314453
22.422914505004883 4.6274261474609375 -8.21390151977539
21.97163200378418 6.970386028289795 -8.100085258483887
21.141902923583984 8.657463073730469 -7.675901889801025
21.84234046936035 6.170069217681885 -8.01122760772705
20.982666015625 8.482891082763672 -7.672066688537598
21.24690818786621 8.659353256225586 -7.908130168914795
20.62639808654785 9.580972671508789 -7.5118889808654785
21.469655990600586 8.579224586486816 -8.090470314025879
21.469655990600586 8.579224586486816 -8.090470314025879
20.53926658630371 9.517918586730957 -7.543266296386719
21.127683639526367 7.924960613250732 -8.116622924804688
22.342674255371094 4.653231620788574 -8.815030097961426
22.17854118347168 4.45636510848999 -8.718663215637207
20.85951805114746 8.639078140258789 -8.10374927520752
20.064361572265625 9.458178520202637 -7.591977119445801
21.1195125579834 7.998406410217285 -8.308382034301758
21.321964263916016 6.130874156951904 -8.448801040649414
20.92620277404785 7.987768173217773 -8.305176734924316
22.083600997924805 4.449188709259033 -9.018274307250977
19.913881301879883 10.257670402526855 -7.8734588623046875
19.675203323364258 10.899748802185059 -7.764504432678223
20.740684509277344 7.888213157653809 -8.37496280670166
20.80057144165039 8.041613578796387 -8.484552383422852
21.107501983642578 7.9619140625 -8.827678680419922
20.863906860351562 8.023822784423828 -8.724764823913574
20.863906860351562 8.023822784423828 -8.724764823913574
19.85576629638672 9.74521541595459 -8.160582542419434
19.85576629638672 9.74521541595459 -8.160582542419434
20.909053802490234 8.812485694885254 -9.011784553527832
20.098073959350586 8.993941307067871 -8.384087562561035
21.050451278686523 7.877050399780273 -9.091354370117188
20.200801849365234 8.797837257385254 -8.481047630310059
20.74850082397461 7.852103233337402 -8.84910774230957
21.603748321533203 4.372920989990234 -9.341266632080078
20.04247283935547 7.786541938781738 -8.357434272766113
20.2442569732666 8.803027153015137 -8.775896072387695
19.670005798339844 9.779035568237305 -8.390214920043945
20.641536712646484 8.021589279174805 -9.076539993286133
20.641536712646484 8.021589279174805 -9.076539993286133
20.80622100830078 7.930180072784424 -9.225101470947266
19.968273162841797 8.849135398864746 -8.626070976257324
20.179264068603516 8.767691612243652 -8.795292854309082
20.179264068603516 8.767691612243652 -8.795292854309082
19.52579689025879 9.995543479919434 -8.359044075012207
20.308507919311523 9.04410457611084 -8.938923835754395
20.22649574279785 8.093060493469238 -8.906564712524414
20.22649574279785 8.093060493469238 -8.906564712524414
19.96086883544922 8.876646041870117 -8.837584495544434
20.435256958007812 7.984993934631348 -9.159350395202637
22.18733787536621 5.376125335693359 -10.410897254943848
21.651180267333984 4.32548189163208 -9.910232543945312
21.646175384521484 4.44780969619751 -9.921156883239746
19.13447380065918 10.642193794250488 -8.47489070892334
19.776262283325195 8.944947242736816 -8.88703727722168
19.958026885986328 8.894817352294922 -9.052752494812012
20.472820281982422 7.876543998718262 -9.434709548950195
21.85740089416504 4.524745464324951 -10.328364372253418
20.04527473449707 8.820533752441406 -9.171040534973145
19.74221420288086 8.91956615447998 -8.999460220336914
19.74221420288086 8.91956615447998 -8.999460220336914
19.689380645751953 9.12549114227295 -9.026236534118652
19.689380645751953 9.12549114227295 -9.026236534118652
19.41692352294922 10.120102882385254 -8.954233169555664
21.4663143157959 3.857102870941162 -10.219378471374512
19.292884826660156 9.984214782714844 -8.913328170776367
20.122724533081055 8.293682098388672 -9.512527465820312
20.122724533081055 8.293682098388672 -9.512527465820312
20.32767677307129 7.78373384475708 -9.734718322753906
21.094762802124023 5.048303127288818 -10.177518844604492
20.124265670776367 8.00618839263916 -9.597213745117188
19.648012161254883 7.998520851135254 -9.183374404907227
19.57975959777832 9.070978164672852 -9.234460830688477
19.33474349975586 9.234747886657715 -9.107126235961914
19.33474349975586 9.234747886657715 -9.107126235961914
21.07785415649414 4.523856163024902 -10.221755981445312
19.252649307250977 9.938705444335938 -9.167938232421875
21.534732818603516 4.327171325683594 -10.712198257446289
19.865333557128906 7.629885196685791 -9.551397323608398
21.101783752441406 3.747328996658325 -10.290452003479004
19.687997817993164 1.828301191329956 -8.873075485229492
18.535768508911133 9.894333839416504 -8.595970153808594
19.39653968811035 9.07892894744873 -9.3019380569458
19.39653968811035 9.07892894744873 -9.3019380569458
19.43144416809082 9.174294471740723 -9.357900619506836
19.43144416809082 9.174294471740723 -9.357900619506836
19.590492248535156 8.930380821228027 -9.51608657836914
20.128549575805664 7.030189514160156 -9.91016960144043
19.411684036254883 9.082972526550293 -9.47297477722168
19.411684036254883 9.082972526550293 -9.47297477722168
20.22675132751465 7.842278957366943 -10.182984352111816
18.547924041748047 9.904234886169434 -8.872385025024414
18.9281005859375 9.663261413574219 -9.224907875061035
20.81625747680664 6.366024017333984 -10.632669448852539
20.81625747680664 6.366024017333984 -10.632669448852539
20.81625747680664 6.366024017333984 -10.632669448852539
20.911630630493164 4.185403823852539 -10.528768539428711
20.660030364990234 3.7064592838287354 -10.277926445007324
19.05730438232422 9.878604888916016 -9.430272102355957
20.33116340637207 5.3024582862854 -10.159789085388184
21.02663803100586 4.130205154418945 -10.724626541137695
19.037086486816406 9.505097389221191 -9.43503475189209
19.448158264160156 9.213315963745117 -9.785630226135254
19.448158264160156 9.213315963745117 -9.785630226135254
18.806360244750977 9.681894302368164 -9.334799766540527
18.652379989624023 10.147236824035645 -9.260595321655273
18.652379989624023 10.147236824035645 -9.260595321655273
18.848962783813477 8.79969596862793 -9.320926666259766
19.33803939819336 9.163931846618652 -9.820253372192383
19.196548461914062 9.301163673400879 -9.705360412597656
18.659915924072266 9.88111686706543 -9.296289443969727
18.720678329467773 9.827561378479004 -9.36137580871582
19.803096771240234 8.487714767456055 -10.268223762512207
19.619802474975586 8.008251190185547 -10.087475776672363
20.618539810180664 4.442880630493164 -10.714472770690918
18.916664123535156 9.62961483001709 -9.634779930114746
20.058486938476562 7.937121391296387 -10.540435791015625
19.129955291748047 8.998247146606445 -9.791374206542969
18.993473052978516 9.216523170471191 -9.712013244628906
18.913288116455078 9.491230964660645 -9.66313362121582
18.913288116455078 9.491230964660645 -9.66313362121582
18.866132736206055 9.410517692565918 -9.628379821777344
20.380380630493164 4.814424991607666 -10.631672859191895
20.309833526611328 5.231389045715332 -10.614726066589355
20.578216552734375 3.701416015625 -10.720548629760742
19.236164093017578 9.179932594299316 -10.010149002075195
18.528484344482422 9.72134780883789 -9.407710075378418
19.706153869628906 7.710972309112549 -10.31668758392334
19.706153869628906 7.710972309112549 -10.31668758392334
20.347646713256836 4.720719337463379 -10.650323867797852
18.929733276367188 9.319181442260742 -9.775945663452148
19.147680282592773 9.275206565856934 -10.016791343688965
19.270933151245117 8.339777946472168 -10.114070892333984
18.724241256713867 9.570893287658691 -9.719653129577637
19.537260055541992 7.333403587341309 -10.289917945861816
19.54256820678711 8.140605926513672 -10.383096694946289
18.869831085205078 9.360448837280273 -9.90489673614502
19.66151237487793 7.6605305671691895 -10.49459171295166
19.00480079650879 9.343047142028809 -10.0435209274292
20.263917922973633 4.783955097198486 -10.79487419128418
19.16837501525879 8.106306076049805 -10.093642234802246
18.630970001220703 9.497766494750977 -9.735742568969727
19.586578369140625 7.7472710609436035 -10.508905410766602
19.586578369140625 7.7472710609436035 -10.508905410766602
19.966476440429688 -7.364160060882568 -9.456975936889648
19.966476440429688 -7.364160060882568 -9.456975936889648
18.006683349609375 10.193206787109375 -9.303129196166992
19.409090042114258 7.712282180786133 -10.414517402648926
18.41457176208496 10.338774681091309 -9.723609924316406
18.41457176208496 10.338774681091309 -9.723609924316406
18.63144302368164 9.570342063903809 -9.892471313476562
18.63144302368164 9.570342063903809 -9.892471313476562
17.888980865478516 10.200390815734863 -9.338324546813965
18.55023193359375 9.189638137817383 -9.879853248596191
18.44671630859375 9.577083587646484 -9.825637817382812
17.914125442504883 9.392748832702637 -9.388211250305176
18.75966453552246 9.234545707702637 -10.218154907226562
18.75966453552246 9.234545707702637 -10.218154907226562
18.837135314941406 7.982941150665283 -10.263080596923828
18.450279235839844 9.693672180175781 -10.100512504577637
19.35248565673828 7.911483287811279 -10.814046859741211
18.485322952270508 9.08081340789795 -10.10009479522705
19.356746673583984 7.689647197723389 -10.81100082397461
18.295564651489258 9.571290969848633 -9.967700958251953
18.27356719970703 6.151392936706543 -9.627082824707031
18.27356719970703 6.151392936706543 -9.627082824707031
18.973651885986328 8.472445487976074 -10.552119255065918
18.495758056640625 9.442359924316406 -10.183160781860352
20.35390281677246 3.8941681385040283 -11.479818344116211
18.869789123535156 8.218931198120117 -10.46920394897461
18.85512924194336 7.789262294769287 -10.416911125183105
18.48078727722168 9.213486671447754 -10.228748321533203
18.48078727722168 9.213486671447754 -10.228748321533203
19.131555557250977 8.101513862609863 -10.770243644714355
18.660133361816406 8.047658920288086 -10.3225679397583
18.80200958251953 8.189385414123535 -10.487265586853027
18.13977813720703 9.691102027893066 -10.012269020080566
18.913612365722656 7.423999786376953 -10.561029434204102
18.228275299072266 9.38642692565918 -10.086543083190918
18.311777114868164 9.521886825561523 -10.194576263427734
18.311777114868164 9.521886825561523 -10.194576263427734
18.51729393005371 8.98930549621582 -10.36962890625
17.704687118530273 10.294022560119629 -9.746904373168945
17.704687118530273 10.294022560119629 -9.746904373168945
18.42780113220215 9.760002136230469 -10.423929214477539
18.842144012451172 7.629788875579834 -10.697649002075195
19.699003219604492 5.374938011169434 -11.412378311157227
19.473575592041016 5.497317790985107 -11.21155834197998
18.51605224609375 8.688212394714355 -10.598034858703613
20.149227142333984 3.859769344329834 -11.739790916442871
18.4609432220459 8.782405853271484 -10.560469627380371
18.44268226623535 8.422636985778809 -10.513885498046875
18.149965286254883 9.491591453552246 -10.354571342468262
20.092649459838867 3.652343273162842 -11.71461009979248
18.198081970214844 9.361628532409668 -10.403584480285645
18.198081970214844 9.361628532409668 -10.403584480285645
18.272647857666016 8.8377046585083 -10.46391773223877
17.882543563842773 9.307907104492188 -10.13998794555664
18.072927474975586 9.086834907531738 -10.324034690856934
18.071054458618164 9.042746543884277 -10.368941307067871
17.62504768371582 10.43048095703125 -10.073796272277832
18.27022361755371 8.980561256408691 -10.623482704162598
18.321834564208984 8.799308776855469 -10.670528411865234
19.4307804107666 5.932896137237549 -11.518213272094727
17.859031677246094 9.629244804382324 -10.315010070800781
17.57335090637207 9.886754989624023 -10.075127601623535
18.121007919311523 9.235038757324219 -10.588787078857422
17.78172492980957 10.661150932312012 -10.428388595581055
19.376506805419922 3.320601463317871 -11.302660942077637
19.17238426208496 6.198329448699951 -11.38819408416748
19.17238426208496 6.198329448699951 -11.38819408416748
18.150480270385742 9.169492721557617 -10.665773391723633
17.865915298461914 9.498433113098145 -10.440332412719727
19.087059020996094 6.190047264099121 -11.357583999633789
19.465038299560547 4.240149021148682 -11.571044921875
17.626142501831055 9.671975135803223 -10.328951835632324
17.626142501831055 9.671975135803223 -10.328951835632324
17.269546508789062 10.391190528869629 -10.04712963104248
17.269546508789062 10.391190528869629 -10.04712963104248
17.824506759643555 9.708280563354492 -10.554020881652832
17.824506759643555 9.708280563354492 -10.554020881652832
19.11125946044922 5.658652305603027 -11.469383239746094
19.11539649963379 4.102097511291504 -11.37773609161377
17.99993896484375 8.814305305480957 -10.719975471496582
19.456941604614258 4.297461032867432 -11.756475448608398
17.791288375854492 9.19687271118164 -10.549980163574219
18.04512596130371 8.472984313964844 -10.766613006591797
18.04512596130371 8.472984313964844 -10.766613006591797
17.7969913482666 9.166913986206055 -10.592819213867188
17.895139694213867 9.873384475708008 -10.78930377960205
17.66971778869629 9.526920318603516 -10.530314445495605
17.66971778869629 9.526920318603516 -10.530314445495605
17.434524536132812 10.504461288452148 -10.44182300567627
19.521547317504883 4.006138801574707 -11.944984436035156
17.558364868164062 9.679147720336914 -10.539443016052246
17.558364868164062 9.679147720336914 -10.539443016052246
17.85517120361328 9.060321807861328 -10.805798530578613
17.227375030517578 10.573211669921875 -10.345287322998047
18.003644943237305 9.017512321472168 -11.030838012695312
17.815725326538086 8.730978965759277 -10.8211088180542
18.67668914794922 6.730317115783691 -11.520609855651855
19.457307815551758 4.0714826583862305 -12.06893539428711
17.620986938476562 9.603119850158691 -10.744040489196777
17.930936813354492 8.910813331604004 -11.020936965942383
18.675809860229492 6.4805827140808105 -11.552056312561035
18.675809860229492 6.4805827140808105 -11.552056312561035
17.30215072631836 10.721020698547363 -10.602938652038574
17.403894424438477 9.788922309875488 -10.651086807250977
19.210960388183594 4.068165302276611 -11.969582557678223
19.38469696044922 5.39487886428833 -12.31253433227539
17.674699783325195 9.480533599853516 -10.97066879272461
17.328081130981445 9.854246139526367 -10.650973320007324
17.87171173095703 8.283050537109375 -11.071460723876953
19.35740852355957 4.064452648162842 -12.232950210571289
19.14834213256836 4.252203464508057 -12.044017791748047
18.05171775817871 4.284304618835449 -10.916356086730957
18.05171775817871 4.284304618835449 -10.916356086730957
17.682598114013672 9.662611961364746 -11.075508117675781
19.119840621948242 4.147664546966553 -12.1906099319458
17.04730224609375 9.820781707763672 -10.595054626464844
17.57149887084961 8.316615104675293 -11.056633949279785
17.68857765197754 8.315991401672363 -11.206160545349121
19.190141677856445 4.066587448120117 -12.398677825927734
17.260034561157227 9.653433799743652 -10.920059204101562
17.62543296813965 9.109356880187988 -11.287328720092773
17.543153762817383 9.382760047912598 -11.238215446472168
17.198118209838867 9.287527084350586 -10.89995288848877
17.170120239257812 9.182012557983398 -10.870924949645996
17.062307357788086 9.964659690856934 -10.944129943847656
17.55249786376953 7.631856441497803 -11.247041702270508
17.599571228027344 7.746992588043213 -11.380697250366211
16.90041160583496 10.143463134765625 -10.874088287353516
16.861297607421875 9.570708274841309 -10.78381633758545
17.038793563842773 9.763113975524902 -11.025205612182617
17.24929428100586 9.625931739807129 -11.253174781799316
16.96298599243164 9.819738388061523 -10.96329402923584
17.226865768432617 9.316768646240234 -11.210543632507324
17.202884674072266 9.403548240661621 -11.204150199890137
18.936073303222656 4.782767295837402 -12.686262130737305
18.936073303222656 4.782767295837402 -12.686262130737305
18.579124450683594 4.062412261962891 -12.309246063232422
19.751924514770508 -3.999297618865967 -12.84114933013916
16.821870803833008 9.926098823547363 -11.093092918395996
16.753204345703125 9.83579158782959 -11.049405097961426
16.62847900390625 10.069683074951172 -11.011346817016602
17.021085739135742 9.943754196166992 -11.489466667175293
16.92109489440918 8.842307090759277 -11.270332336425781
8.015798568725586 4.280723571777344 -0.9814375638961792
16.686180114746094 9.948925018310547 -11.184618949890137
16.97710609436035 9.33997917175293 -11.451334953308105
17.106849670410156 8.105340957641602 -11.47947883605957
17.106849670410156 8.105340957641602 -11.47947883605957
16.977401733398438 8.430069923400879 -11.467419624328613
16.719465255737305 9.497699737548828 -11.302384376525879
16.707971572875977 9.685897827148438 -11.316601753234863
16.58746337890625 9.934617042541504 -11.31853199005127
16.641752243041992 9.895072937011719 -11.409048080444336
16.641752243041992 9.895072937011719 -11.409048080444336
16.72753143310547 9.635851860046387 -11.544589042663574
16.756013870239258 9.43236255645752 -11.6141939163208
16.65755844116211 9.774698257446289 -11.565539360046387
16.72011947631836 9.754012107849121 -11.670248985290527
16.719079971313477 8.73183536529541 -11.6912260055542
16.3930721282959 9.722039222717285 -11.448565483093262
16.444589614868164 9.362957000732422 -11.478378295898438
16.585800170898438 9.465766906738281 -11.663603782653809
16.7200927734375 7.911877632141113 -11.824600219726562
16.175172805786133 9.939912796020508 -11.413355827331543
16.322038650512695 9.561433792114258 -11.560423851013184
16.643817901611328 8.754990577697754 -11.849774360656738
16.41098976135254 10.672248840332031 -11.82009506225586
16.171585083007812 10.067778587341309 -11.542769432067871
16.263507843017578 9.251111030578613 -11.602088928222656
16.69407081604004 7.944363117218018 -11.976411819458008
16.305015563964844 9.603962898254395 -11.767243385314941
16.305015563964844 9.603962898254395 -11.767243385314941
16.2651309967041 9.437620162963867 -11.729925155639648
15.997212409973145 9.692122459411621 -11.45569133758545
15.997212409973145 9.692122459411621 -11.45569133758545
16.204206466674805 10.513729095458984 -11.826578140258789
16.204206466674805 10.513729095458984 -11.826578140258789
16.295732498168945 8.795591354370117 -11.809426307678223
16.295732498168945 8.795591354370117 -11.809426307678223
16.23847770690918 8.726554870605469 -11.75062084197998
16.085891723632812 10.13633918762207 -11.755041122436523
16.110666275024414 10.08377456665039 -11.787064552307129
15.776483535766602 8.491287231445312 -11.226189613342285
15.53380012512207 9.341145515441895 -11.061873435974121
15.956452369689941 9.681658744812012 -11.597392082214355
16.479246139526367 8.221673965454102 -12.07724666595459
16.081235885620117 9.440767288208008 -11.755870819091797
16.374942779541016 8.581583976745605 -12.037124633789062
16.303932189941406 8.705998420715332 -12.000261306762695
14.954557418823242 8.238924026489258 -10.419916152954102
16.20369529724121 8.743145942687988 -11.991525650024414
15.991497993469238 10.043824195861816 -11.919133186340332
16.27984046936035 9.47208023071289 -12.210805892944336
16.35881233215332 8.014297485351562 -12.248114585876465
15.848223686218262 10.452156066894531 -11.946642875671387
15.906667709350586 9.768253326416016 -11.980069160461426
15.782353401184082 9.600469589233398 -11.876338005065918
15.768224716186523 10.021390914916992 -11.927597999572754
15.686437606811523 10.200698852539062 -11.860801696777344
15.892626762390137 8.250874519348145 -11.88949966430664
15.961725234985352 8.89400577545166 -12.09271240234375
16.000246047973633 8.99219799041748 -12.157672882080078
16.078954696655273 7.957845687866211 -12.211169242858887
15.610618591308594 9.822650909423828 -11.86187744140625
15.610618591308594 9.822650909423828 -11.86187744140625
16.181678771972656 9.645980834960938 -12.562017440795898
16.181678771972656 9.645980834960938 -12.562017440795898
15.688729286193848 10.156967163085938 -12.04981803894043
15.668771743774414 9.416568756103516 -11.93783187866211
15.5037202835083 10.163710594177246 -11.944314956665039
15.824703216552734 9.59222412109375 -12.353206634521484
15.54163932800293 9.974032402038574 -12.067521095275879
15.754850387573242 10.315204620361328 -12.427817344665527
15.589357376098633 9.892012596130371 -12.208927154541016
15.905315399169922 7.706762790679932 -12.367348670959473
15.583882331848145 10.358649253845215 -12.28769302368164
15.586957931518555 10.321743965148926 -12.3300199508667
16.608505249023438 6.243161678314209 -13.147261619567871
15.466913223266602 10.287879943847656 -12.405007362365723
15.238435745239258 10.154226303100586 -12.279974937438965
15.213760375976562 9.178722381591797 -12.202927589416504
15.03770637512207 9.385260581970215 -12.14600658416748
15.176942825317383 10.191898345947266 -12.516921997070312
15.229792594909668 10.304037094116211 -12.682595252990723
14.691499710083008 9.317849159240723 -12.004076957702637
15.395501136779785 6.981148719787598 -12.77473258972168
15.320415496826172 6.62398099899292 -12.633565902709961
16.2026424407959 6.265688419342041 -13.857855796813965
14.03803825378418 6.579110622406006 -11.098685264587402
14.67905044555664 9.623327255249023 -12.315195083618164
15.898125648498535 6.3341474533081055 -13.627180099487305
15.133625030517578 6.812412738800049 -12.80974006652832
15.28077507019043 7.434727668762207 -13.12576961517334
15.825004577636719 6.17383337020874 -13.717507362365723
15.226773262023926 6.290682792663574 -13.107221603393555
16.007144927978516 6.242159366607666 -14.700901985168457
16.890438079833984 -7.850961208343506 -14.647418975830078
16.607126235961914 -7.572024345397949 -14.410508155822754
18.188819885253906 -3.5134851932525635 -17.284881591796875
15.21336841583252 5.841299057006836 -14.322223663330078
16.395193099975586 -7.663598537445068 -14.77999496459961
16.395193099975586 -7.663598537445068 -14.77999496459961
14.854177474975586 6.510763645172119 -14.561870574951172
15.098265647888184 6.00531005859375 -14.921500205993652
13.756243705749512 7.076629161834717 -13.173249244689941
13.408571243286133 8.863459587097168 -13.010641098022461
13.408571243286133 8.863459587097168 -13.010641098022461
13.127571105957031 8.69677448272705 -12.799498558044434
13.296546936035156 8.865119934082031 -13.124350547790527
13.114131927490234 8.7988920211792 -13.066025733947754
16.001079559326172 -7.556580543518066 -15.287932395935059
14.562498092651367 5.717572212219238 -14.867927551269531
16.103023529052734 -7.883984565734863 -15.611396789550781
13.111262321472168 8.894820213317871 -13.393725395202637
15.77668285369873 -7.651423454284668 -15.297368049621582
13.02034854888916 8.948918342590332 -13.315962791442871
15.967316627502441 -7.973173141479492 -15.643653869628906
15.926304817199707 -7.6413984298706055 -15.713833808898926
14.365370750427246 5.835055828094482 -15.383232116699219
15.889822959899902 -7.975353240966797 -16.10092544555664
12.74718189239502 8.749488830566406 -14.053838729858398
15.858884811401367 -8.431894302368164 -16.838769912719727
15.247264862060547 -4.0414581298828125 -16.601472854614258
15.401429176330566 -7.047414302825928 -16.493555068969727
15.401429176330566 -7.047414302825928 -16.493555068969727
15.486305236816406 -8.735332489013672 -16.963151931762695
15.159879684448242 -8.810330390930176 -17.01047134399414
15.248592376708984 -9.57573413848877 -17.17860221862793
15.248592376708984 -9.57573413848877 -17.17860221862793
14.858308792114258 -8.824012756347656 -16.629472732543945
14.526605606079102 -6.992651462554932 -16.424007415771484
